ply
format ascii 1.0
comment author : Loiseau & Broux
comment object : 3d point Cloud
element vertex 1395
property float x
property float y
property float z
property uchar red
property uchar green
property uchar blue
end_header
2.7741 0.242878 -19.5541 255 0 0
2.7741 0.234246 -19.5541 255 0 0
2.7741 0.225614 -19.5541 255 0 0
2.78816 0.218081 -19.6531 255 0 0
2.78816 0.209406 -19.6531 255 0 0
2.81669 0.202785 -19.8543 255 0 0
2.81669 0.19402 -19.8543 255 0 0
2.81669 0.185256 -19.8543 255 0 0
2.81669 0.176491 -19.8543 255 0 0
2.81669 0.167727 -19.8543 255 0 0
2.81669 0.158962 -19.8543 255 0 0
2.81669 0.150198 -19.8543 255 0 0
2.81669 0.141433 -19.8543 255 0 0
2.81669 0.132668 -19.8543 255 0 0
2.81669 0.123904 -19.8543 255 0 0
2.81669 0.115139 -19.8543 255 0 0
2.81669 0.106375 -19.8543 255 0 0
2.81669 0.0976104 -19.8543 255 0 0
2.81669 0.0888459 -19.8543 255 0 0
2.81669 0.0800814 -19.8543 255 0 0
2.81669 0.0713169 -19.8543 255 0 0
2.81669 0.0625524 -19.8543 255 0 0
2.81669 0.0537878 -19.8543 255 0 0
2.81669 0.0450233 -19.8543 255 0 0
2.81669 0.0362588 -19.8543 255 0 0
2.81958 0.0275225 -19.8746 255 0 0
2.81958 0.018749 -19.8746 255 0 0
2.81958 0.00997547 -19.8746 255 0 0
2.81958 0.00120197 -19.8746 255 0 0
2.8341 -0.00761052 -19.977 255 0 0
2.8341 -0.0164292 -19.977 255 0 0
2.84877 -0.0253785 -20.0804 255 0 0
2.84877 -0.0342429 -20.0804 255 0 0
2.81958 -0.0426655 -19.8746 255 0 0
2.81958 -0.051439 -19.8746 255 0 0
2.81669 -0.0601509 -19.8543 255 0 0
2.81669 -0.0689154 -19.8543 255 0 0
2.81669 -0.0776799 -19.8543 255 0 0
2.81669 -0.0864444 -19.8543 255 0 0
2.81669 -0.0952089 -19.8543 255 0 0
2.81669 -0.103973 -19.8543 255 0 0
2.83118 -0.113318 -19.9564 255 0 0
2.83118 -0.122128 -19.9564 255 0 0
2.83118 -0.130937 -19.9564 255 0 0
2.83118 -0.139747 -19.9564 255 0 0
2.83118 -0.148556 -19.9564 255 0 0
2.83118 -0.157366 -19.9564 255 0 0
2.81669 -0.165325 -19.8543 255 0 0
2.81669 -0.17409 -19.8543 255 0 0
2.81669 -0.182854 -19.8543 255 0 0
2.81669 -0.191619 -19.8543 255 0 0
2.81669 -0.200383 -19.8543 255 0 0
2.81669 -0.209148 -19.8543 255 0 0
2.81669 -0.217912 -19.8543 255 0 0
2.81669 -0.226677 -19.8543 255 0 0
2.81958 -0.235682 -19.8746 255 0 0
2.81958 -0.244456 -19.8746 255 0 0
2.81958 -0.253229 -19.8746 255 0 0
2.81958 -0.262003 -19.8746 255 0 0
2.8341 -0.272171 -19.977 255 0 0
2.8341 -0.280989 -19.977 255 0 0
2.86359 -0.292824 -20.1848 255 0 0
2.86359 -0.301734 -20.1848 255 0 0
2.86359 -0.310645 -20.1848 255 0 0
2.86359 -0.319555 -20.1848 255 0 0
2.86657 -0.328808 -20.2059 255 0 0
2.86657 -0.337727 -20.2059 255 0 0
2.91516 -0.352522 -20.5483 255 0 0
2.91516 -0.361593 -20.5483 255 0 0
2.91516 -0.370664 -20.5483 255 0 0
2.91516 -0.379735 -20.5483 255 0 0
2.91207 -0.388395 -20.5266 255 0 0
2.91207 -0.397456 -20.5266 255 0 0
2.88158 -0.402261 -20.3117 255 0 0
2.88158 -0.411227 -20.3117 255 0 0
2.92756 -0.426899 -20.6358 255 0 0
2.92756 -0.436008 -20.6358 255 0 0
2.91207 -0.442762 -20.5266 255 0 0
2.91207 -0.451824 -20.5266 255 0 0
2.91207 -0.460885 -20.5266 255 0 0
2.91207 -0.469946 -20.5266 255 0 0
2.91516 -0.479515 -20.5483 255 0 0
2.91516 -0.488586 -20.5483 255 0 0
2.91516 -0.497657 -20.5483 255 0 0
2.91516 -0.506728 -20.5483 255 0 0
2.91516 -0.515799 -20.5483 255 0 0
2.91516 -0.52487 -20.5483 255 0 0
2.91207 -0.533376 -20.5266 255 0 0
2.91207 -0.542437 -20.5266 255 0 0
2.91207 -0.551498 -20.5266 255 0 0
2.91207 -0.560559 -20.5266 255 0 0
2.91207 -0.569621 -20.5266 255 0 0
2.91207 -0.578682 -20.5266 255 0 0
2.91516 -0.588366 -20.5483 255 0 0
2.91516 -0.597437 -20.5483 255 0 0
2.91516 -0.606508 -20.5483 255 0 0
2.91516 -0.615579 -20.5483 255 0 0
2.91516 -0.62465 -20.5483 255 0 0
2.91516 -0.63372 -20.5483 255 0 0
2.91516 -0.642791 -20.5483 255 0 0
2.91516 -0.651862 -20.5483 255 0 0
2.92756 -0.663746 -20.6358 255 0 0
2.92756 -0.672855 -20.6358 255 0 0
2.92756 -0.681965 -20.6358 255 0 0
2.92756 -0.691074 -20.6358 255 0 0
2.93068 -0.700929 -20.6577 255 0 0
2.93068 -0.710049 -20.6577 255 0 0
2.93068 -0.719168 -20.6577 255 0 0
2.93068 -0.728287 -20.6577 255 0 0
2.93068 -0.737406 -20.6577 255 0 0
2.93068 -0.746525 -20.6577 255 0 0
2.93068 -0.755645 -20.6577 255 0 0
2.93068 -0.764764 -20.6577 255 0 0
2.96223 -0.782213 -20.8801 255 0 0
2.96223 -0.791431 -20.8801 255 0 0
2.96542 -0.801511 -20.9026 255 0 0
2.96542 -0.810738 -20.9026 255 0 0
2.96223 -0.819083 -20.8801 255 0 0
2.96223 -0.8283 -20.8801 255 0 0
2.96223 -0.837517 -20.8801 255 0 0
2.96223 -0.846735 -20.8801 255 0 0
2.96223 -0.855952 -20.8801 255 0 0
2.96223 -0.86517 -20.8801 255 0 0
2.96223 -0.874387 -20.8801 255 0 0
2.96223 -0.883604 -20.8801 255 0 0
2.96223 -0.892822 -20.8801 255 0 0
2.96223 -0.902039 -20.8801 255 0 0
2.96223 -0.911256 -20.8801 255 0 0
2.96223 -0.920474 -20.8801 255 0 0
2.96223 -0.929691 -20.8801 255 0 0
2.96223 -0.938908 -20.8801 255 0 0
2.95904 -0.947106 -20.8577 255 0 0
2.95904 -0.956314 -20.8577 255 0 0
2.93068 -0.956267 -20.6577 255 0 0
2.93068 -0.965386 -20.6577 255 0 0
2.91207 -0.968318 -20.5266 255 0 0
2.91207 -0.977379 -20.5266 255 0 0
2.91516 -0.987486 -20.5483 255 0 0
2.91516 -0.996557 -20.5483 255 0 0
2.91516 -1.00563 -20.5483 255 0 0
2.91516 -1.0147 -20.5483 255 0 0
2.91516 -1.02377 -20.5483 255 0 0
2.91516 -1.03284 -20.5483 255 0 0
2.91207 -1.04081 -20.5266 255 0 0
2.91207 -1.04987 -20.5266 255 0 0
2.91207 -1.05893 -20.5266 255 0 0
2.91207 -1.06799 -20.5266 255 0 0
2.91207 -1.07705 -20.5266 255 0 0
2.91207 -1.08612 -20.5266 255 0 0
2.91516 -1.09634 -20.5483 255 0 0
2.91516 -1.10541 -20.5483 255 0 0
2.91516 -1.11448 -20.5483 255 0 0
2.91516 -1.12355 -20.5483 255 0 0
2.91516 -1.13262 -20.5483 255 0 0
2.91516 -1.14169 -20.5483 255 0 0
2.91207 -1.14954 -20.5266 255 0 0
2.91207 -1.15861 -20.5266 255 0 0
2.91207 -1.16767 -20.5266 255 0 0
2.91207 -1.17673 -20.5266 255 0 0
2.92756 -1.1921 -20.6358 255 0 0
2.92756 -1.20121 -20.6358 255 0 0
2.92756 -1.21032 -20.6358 255 0 0
2.92756 -1.21943 -20.6358 255 0 0
2.92756 -1.22853 -20.6358 255 0 0
2.92756 -1.23764 -20.6358 255 0 0
2.92756 -1.24675 -20.6358 255 0 0
2.92756 -1.25586 -20.6358 255 0 0
2.92756 -1.26497 -20.6358 255 0 0
2.92756 -1.27408 -20.6358 255 0 0
2.92756 -1.28319 -20.6358 255 0 0
2.92756 -1.2923 -20.6358 255 0 0
2.93068 -1.3028 -20.6577 255 0 0
2.93068 -1.31192 -20.6577 255 0 0
2.93068 -1.32104 -20.6577 255 0 0
2.93068 -1.33015 -20.6577 255 0 0
2.93068 -1.33927 -20.6577 255 0 0
2.93068 -1.34839 -20.6577 255 0 0
2.91516 -1.35032 -20.5483 255 0 0
2.91516 -1.35939 -20.5483 255 0 0
2.91516 -1.36846 -20.5483 255 0 0
2.91516 -1.37753 -20.5483 255 0 0
2.91516 -1.38661 -20.5483 255 0 0
2.91516 -1.39568 -20.5483 255 0 0
2.91516 -1.40475 -20.5483 255 0 0
2.91516 -1.41382 -20.5483 255 0 0
2.91516 -1.42289 -20.5483 255 0 0
2.91516 -1.43196 -20.5483 255 0 0
2.91516 -1.44103 -20.5483 255 0 0
2.91516 -1.4501 -20.5483 255 0 0
2.91516 -1.45917 -20.5483 255 0 0
2.91516 -1.46824 -20.5483 255 0 0
2.91207 -1.47575 -20.5266 255 0 0
2.91207 -1.48481 -20.5266 255 0 0
2.91207 -1.49387 -20.5266 255 0 0
2.91207 -1.50294 -20.5266 255 0 0
2.91207 -1.512 -20.5266 255 0 0
2.91207 -1.52106 -20.5266 255 0 0
2.91516 -1.53174 -20.5483 255 0 0
2.91516 -1.54081 -20.5483 255 0 0
2.91516 -1.54988 -20.5483 255 0 0
2.91516 -1.55895 -20.5483 255 0 0
2.91516 -1.56802 -20.5483 255 0 0
2.91516 -1.57709 -20.5483 255 0 0
2.91516 -1.58617 -20.5483 255 0 0
2.91516 -1.59524 -20.5483 255 0 0
2.91516 -1.60431 -20.5483 255 0 0
2.91516 -1.61338 -20.5483 255 0 0
2.91516 -1.62245 -20.5483 255 0 0
2.91516 -1.63152 -20.5483 255 0 0
2.91516 -1.64059 -20.5483 255 0 0
2.91516 -1.64966 -20.5483 255 0 0
2.91516 -1.65873 -20.5483 255 0 0
2.91516 -1.6678 -20.5483 255 0 0
2.91516 -1.67687 -20.5483 255 0 0
2.91516 -1.68595 -20.5483 255 0 0
2.91516 -1.69502 -20.5483 255 0 0
2.91516 -1.70409 -20.5483 255 0 0
2.91516 -1.71316 -20.5483 255 0 0
2.91516 -1.72223 -20.5483 255 0 0
2.91516 -1.7313 -20.5483 255 0 0
2.91516 -1.74037 -20.5483 255 0 0
2.91516 -1.74944 -20.5483 255 0 0
2.91516 -1.75851 -20.5483 255 0 0
2.91516 -1.76758 -20.5483 255 0 0
2.91516 -1.77665 -20.5483 255 0 0
2.91516 -1.78573 -20.5483 255 0 0
2.91516 -1.7948 -20.5483 255 0 0
2.91516 -1.80387 -20.5483 255 0 0
2.91516 -1.81294 -20.5483 255 0 0
2.91516 -1.82201 -20.5483 255 0 0
2.91516 -1.83108 -20.5483 255 0 0
2.91516 -1.84015 -20.5483 255 0 0
2.91516 -1.84922 -20.5483 255 0 0
2.91516 -1.85829 -20.5483 255 0 0
2.91516 -1.86736 -20.5483 255 0 0
2.91516 -1.87643 -20.5483 255 0 0
2.91516 -1.88551 -20.5483 255 0 0
2.91516 -1.89458 -20.5483 255 0 0
2.91516 -1.90365 -20.5483 255 0 0
2.91516 -1.91272 -20.5483 255 0 0
2.91516 -1.92179 -20.5483 255 0 0
2.91516 -1.93086 -20.5483 255 0 0
2.91516 -1.93993 -20.5483 255 0 0
2.91516 -1.949 -20.5483 255 0 0
2.91516 -1.95807 -20.5483 255 0 0
2.91516 -1.96714 -20.5483 255 0 0
2.91516 -1.97621 -20.5483 255 0 0
2.91516 -1.98529 -20.5483 255 0 0
2.91516 -1.99436 -20.5483 255 0 0
2.91516 -2.00343 -20.5483 255 0 0
2.91516 -2.0125 -20.5483 255 0 0
2.91516 -2.02157 -20.5483 255 0 0
2.91516 -2.03064 -20.5483 255 0 0
2.91516 -2.03971 -20.5483 255 0 0
2.91516 -2.04878 -20.5483 255 0 0
2.91516 -2.05785 -20.5483 255 0 0
2.91516 -2.06692 -20.5483 255 0 0
2.91516 -2.07599 -20.5483 255 0 0
2.91516 -2.08506 -20.5483 255 0 0
2.91516 -2.09414 -20.5483 255 0 0
2.91516 -2.10321 -20.5483 255 0 0
2.93068 -2.12353 -20.6577 255 0 0
2.93068 -2.13264 -20.6577 255 0 0
2.91516 -2.13042 -20.5483 255 0 0
2.91516 -2.13949 -20.5483 255 0 0
2.91516 -2.14856 -20.5483 255 0 0
2.91516 -2.15763 -20.5483 255 0 0
2.91516 -2.1667 -20.5483 255 0 0
2.91516 -2.17577 -20.5483 255 0 0
2.91516 -2.18484 -20.5483 255 0 0
2.91516 -2.19392 -20.5483 255 0 0
2.93068 -2.21472 -20.6577 255 0 0
2.93068 -2.22384 -20.6577 255 0 0
2.93068 -2.23296 -20.6577 255 0 0
2.93068 -2.24207 -20.6577 255 0 0
2.96223 -2.27543 -20.8801 255 0 0
2.96223 -2.28464 -20.8801 255 0 0
2.96223 -2.29386 -20.8801 255 0 0
2.96223 -2.30308 -20.8801 255 0 0
2.93068 -2.28767 -20.6577 255 0 0
2.93068 -2.29679 -20.6577 255 0 0
2.93068 -2.30591 -20.6577 255 0 0
2.93068 -2.31503 -20.6577 255 0 0
2.91516 -2.31184 -20.5483 255 0 0
2.91516 -2.32091 -20.5483 255 0 0
2.91516 -2.32998 -20.5483 255 0 0
2.91516 -2.33905 -20.5483 255 0 0
2.91516 -2.34812 -20.5483 255 0 0
2.91516 -2.35719 -20.5483 255 0 0
2.91516 -2.36626 -20.5483 255 0 0
2.91516 -2.37533 -20.5483 255 0 0
2.91516 -2.3844 -20.5483 255 0 0
2.91516 -2.39348 -20.5483 255 0 0
2.91516 -2.40255 -20.5483 255 0 0
2.91516 -2.41162 -20.5483 255 0 0
2.91516 -2.42069 -20.5483 255 0 0
2.91516 -2.42976 -20.5483 255 0 0
2.91516 -2.43883 -20.5483 255 0 0
2.91516 -2.4479 -20.5483 255 0 0
2.91516 -2.45697 -20.5483 255 0 0
2.91516 -2.46604 -20.5483 255 0 0
2.91516 -2.47511 -20.5483 255 0 0
2.91516 -2.48418 -20.5483 255 0 0
2.93068 -2.50653 -20.6577 255 0 0
2.93068 -2.51565 -20.6577 255 0 0
2.93068 -2.52477 -20.6577 255 0 0
2.73513 0.342662 -19.3396 255 0 0
2.77666 0.339198 -19.6332 255 0 0
2.77666 0.330531 -19.6332 255 0 0
2.77947 0.32219 -19.6531 255 0 0
2.77947 0.313514 -19.6531 255 0 0
2.76546 0.268774 -19.5541 255 0 0
2.76546 0.260142 -19.5541 255 0 0
2.76546 0.25151 -19.5541 255 0 0
2.76546 0.242878 -19.5541 255 0 0
2.76546 0.234246 -19.5541 255 0 0
2.76546 0.225614 -19.5541 255 0 0
2.76825 0.217201 -19.5738 255 0 0
2.76825 0.208561 -19.5738 255 0 0
2.79647 0.201958 -19.7733 255 0 0
2.79647 0.193229 -19.7733 255 0 0
2.79647 0.1845 -19.7733 255 0 0
2.79647 0.175771 -19.7733 255 0 0
2.79647 0.167043 -19.7733 255 0 0
2.79647 0.158314 -19.7733 255 0 0
2.79647 0.149585 -19.7733 255 0 0
2.79647 0.140856 -19.7733 255 0 0
2.79647 0.132128 -19.7733 255 0 0
2.79647 0.123399 -19.7733 255 0 0
2.79647 0.11467 -19.7733 255 0 0
2.79647 0.105941 -19.7733 255 0 0
2.79647 0.0972124 -19.7733 255 0 0
2.79647 0.0884836 -19.7733 255 0 0
2.79647 0.0797549 -19.7733 255 0 0
2.79647 0.0710261 -19.7733 255 0 0
2.79647 0.0622973 -19.7733 255 0 0
2.79647 0.0535685 -19.7733 255 0 0
2.79647 0.0448397 -19.7733 255 0 0
2.79647 0.036111 -19.7733 255 0 0
2.81079 0.0275225 -19.8746 255 0 0
2.81079 0.018749 -19.8746 255 0 0
2.81079 0.00997547 -19.8746 255 0 0
2.81079 0.00120197 -19.8746 255 0 0
2.81368 -0.00757929 -19.895 255 0 0
2.81368 -0.0163618 -19.895 255 0 0
2.81657 -0.0251701 -19.9154 255 0 0
2.81657 -0.0339616 -19.9154 255 0 0
2.81079 -0.0426655 -19.8746 255 0 0
2.81079 -0.051439 -19.8746 255 0 0
2.79647 -0.0599056 -19.7733 255 0 0
2.79647 -0.0686344 -19.7733 255 0 0
2.79647 -0.0773632 -19.7733 255 0 0
2.79647 -0.0860919 -19.7733 255 0 0
2.79647 -0.0948207 -19.7733 255 0 0
2.79647 -0.10355 -19.7733 255 0 0
2.79932 -0.112393 -19.7935 255 0 0
2.79932 -0.121131 -19.7935 255 0 0
2.79932 -0.129868 -19.7935 255 0 0
2.79932 -0.138606 -19.7935 255 0 0
2.79932 -0.147344 -19.7935 255 0 0
2.79932 -0.156081 -19.7935 255 0 0
2.79647 -0.164651 -19.7733 255 0 0
2.79647 -0.17338 -19.7733 255 0 0
2.79647 -0.182109 -19.7733 255 0 0
2.79647 -0.190837 -19.7733 255 0 0
2.79647 -0.199566 -19.7733 255 0 0
2.79647 -0.208295 -19.7733 255 0 0
2.79647 -0.217024 -19.7733 255 0 0
2.79647 -0.225752 -19.7733 255 0 0
2.81079 -0.235682 -19.8746 255 0 0
2.81079 -0.244456 -19.8746 255 0 0
2.81079 -0.253229 -19.8746 255 0 0
2.81079 -0.262003 -19.8746 255 0 0
2.81368 -0.271054 -19.895 255 0 0
2.81368 -0.279837 -19.895 255 0 0
2.84284 -0.29161 -20.1012 255 0 0
2.84284 -0.300483 -20.1012 255 0 0
2.84284 -0.309357 -20.1012 255 0 0
2.84284 -0.318231 -20.1012 255 0 0
2.85764 -0.328808 -20.2059 255 0 0
2.85764 -0.337727 -20.2059 255 0 0
2.90608 -0.352522 -20.5483 255 0 0
2.90608 -0.361593 -20.5483 255 0 0
2.90608 -0.370664 -20.5483 255 0 0
2.90608 -0.379735 -20.5483 255 0 0
2.89076 -0.386758 -20.4401 255 0 0
2.89076 -0.395781 -20.4401 255 0 0
2.86062 -0.400583 -20.2269 255 0 0
2.86062 -0.409512 -20.2269 255 0 0
2.89381 -0.423296 -20.4616 255 0 0
2.89381 -0.432329 -20.4616 255 0 0
2.89076 -0.440896 -20.4401 255 0 0
2.89076 -0.449919 -20.4401 255 0 0
2.89076 -0.458942 -20.4401 255 0 0
2.89076 -0.467966 -20.4401 255 0 0
2.90608 -0.479515 -20.5483 255 0 0
2.90608 -0.488586 -20.5483 255 0 0
2.90608 -0.497657 -20.5483 255 0 0
2.90608 -0.506728 -20.5483 255 0 0
2.90608 -0.515799 -20.5483 255 0 0
2.90608 -0.52487 -20.5483 255 0 0
2.89076 -0.531127 -20.4401 255 0 0
2.89076 -0.54015 -20.4401 255 0 0
2.89076 -0.549174 -20.4401 255 0 0
2.89076 -0.558197 -20.4401 255 0 0
2.89076 -0.56722 -20.4401 255 0 0
2.89076 -0.576243 -20.4401 255 0 0
2.90608 -0.588366 -20.5483 255 0 0
2.90608 -0.597437 -20.5483 255 0 0
2.90608 -0.606508 -20.5483 255 0 0
2.90608 -0.615579 -20.5483 255 0 0
2.90608 -0.62465 -20.5483 255 0 0
2.90608 -0.63372 -20.5483 255 0 0
2.90608 -0.642791 -20.5483 255 0 0
2.90608 -0.651862 -20.5483 255 0 0
2.89381 -0.658144 -20.4616 255 0 0
2.89381 -0.667177 -20.4616 255 0 0
2.89381 -0.67621 -20.4616 255 0 0
2.89381 -0.685242 -20.4616 255 0 0
2.90916 -0.697956 -20.5701 255 0 0
2.90916 -0.707037 -20.5701 255 0 0
2.90916 -0.716117 -20.5701 255 0 0
2.90916 -0.725198 -20.5701 255 0 0
2.90916 -0.734278 -20.5701 255 0 0
2.90916 -0.743359 -20.5701 255 0 0
2.90916 -0.752439 -20.5701 255 0 0
2.90916 -0.76152 -20.5701 255 0 0
2.94034 -0.77886 -20.7906 255 0 0
2.94034 -0.788038 -20.7906 255 0 0
2.95618 -0.801511 -20.9026 255 0 0
2.95618 -0.810738 -20.9026 255 0 0
2.94034 -0.815571 -20.7906 255 0 0
2.94034 -0.824749 -20.7906 255 0 0
2.94034 -0.833927 -20.7906 255 0 0
2.94034 -0.843105 -20.7906 255 0 0
2.94034 -0.852283 -20.7906 255 0 0
2.94034 -0.86146 -20.7906 255 0 0
2.94034 -0.870638 -20.7906 255 0 0
2.94034 -0.879816 -20.7906 255 0 0
2.94034 -0.888994 -20.7906 255 0 0
2.94034 -0.898172 -20.7906 255 0 0
2.94034 -0.90735 -20.7906 255 0 0
2.94034 -0.916527 -20.7906 255 0 0
2.94034 -0.925705 -20.7906 255 0 0
2.94034 -0.934883 -20.7906 255 0 0
2.92467 -0.939029 -20.6798 255 0 0
2.92467 -0.948158 -20.6798 255 0 0
2.90916 -0.952211 -20.5701 255 0 0
2.90916 -0.961291 -20.5701 255 0 0
2.89076 -0.964237 -20.4401 255 0 0
2.89076 -0.97326 -20.4401 255 0 0
2.90608 -0.987486 -20.5483 255 0 0
2.90608 -0.996557 -20.5483 255 0 0
2.90608 -1.00563 -20.5483 255 0 0
2.90608 -1.0147 -20.5483 255 0 0
2.90608 -1.02377 -20.5483 255 0 0
2.90608 -1.03284 -20.5483 255 0 0
2.89076 -1.03642 -20.4401 255 0 0
2.89076 -1.04544 -20.4401 255 0 0
2.89076 -1.05447 -20.4401 255 0 0
2.89076 -1.06349 -20.4401 255 0 0
2.89076 -1.07251 -20.4401 255 0 0
2.89076 -1.08154 -20.4401 255 0 0
2.90608 -1.09634 -20.5483 255 0 0
2.90608 -1.10541 -20.5483 255 0 0
2.90608 -1.11448 -20.5483 255 0 0
2.90608 -1.12355 -20.5483 255 0 0
2.90608 -1.13262 -20.5483 255 0 0
2.90608 -1.14169 -20.5483 255 0 0
2.89076 -1.1447 -20.4401 255 0 0
2.89076 -1.15372 -20.4401 255 0 0
2.89076 -1.16275 -20.4401 255 0 0
2.89076 -1.17177 -20.4401 255 0 0
2.89381 -1.18204 -20.4616 255 0 0
2.89381 -1.19107 -20.4616 255 0 0
2.89381 -1.2001 -20.4616 255 0 0
2.89381 -1.20913 -20.4616 255 0 0
2.89381 -1.21817 -20.4616 255 0 0
2.89381 -1.2272 -20.4616 255 0 0
2.89381 -1.23623 -20.4616 255 0 0
2.89381 -1.24527 -20.4616 255 0 0
2.89381 -1.2543 -20.4616 255 0 0
2.89381 -1.26333 -20.4616 255 0 0
2.89381 -1.27236 -20.4616 255 0 0
2.89381 -1.2814 -20.4616 255 0 0
2.90916 -1.29727 -20.5701 255 0 0
2.90916 -1.30635 -20.5701 255 0 0
2.90916 -1.31543 -20.5701 255 0 0
2.90916 -1.32451 -20.5701 255 0 0
2.90916 -1.33359 -20.5701 255 0 0
2.90916 -1.34267 -20.5701 255 0 0
2.90608 -1.35032 -20.5483 255 0 0
2.90608 -1.35939 -20.5483 255 0 0
2.90608 -1.36846 -20.5483 255 0 0
2.90608 -1.37753 -20.5483 255 0 0
2.90608 -1.38661 -20.5483 255 0 0
2.90608 -1.39568 -20.5483 255 0 0
2.90608 -1.40475 -20.5483 255 0 0
2.90608 -1.41382 -20.5483 255 0 0
2.90608 -1.42289 -20.5483 255 0 0
2.90608 -1.43196 -20.5483 255 0 0
2.90608 -1.44103 -20.5483 255 0 0
2.90608 -1.4501 -20.5483 255 0 0
2.90608 -1.45917 -20.5483 255 0 0
2.90608 -1.46824 -20.5483 255 0 0
2.89076 -1.46953 -20.4401 255 0 0
2.89076 -1.47855 -20.4401 255 0 0
2.89076 -1.48758 -20.4401 255 0 0
2.89076 -1.4966 -20.4401 255 0 0
2.89076 -1.50562 -20.4401 255 0 0
2.89076 -1.51465 -20.4401 255 0 0
2.90608 -1.53174 -20.5483 255 0 0
2.90608 -1.54081 -20.5483 255 0 0
2.90608 -1.54988 -20.5483 255 0 0
2.90608 -1.55895 -20.5483 255 0 0
2.90608 -1.56802 -20.5483 255 0 0
2.90608 -1.57709 -20.5483 255 0 0
2.90608 -1.58617 -20.5483 255 0 0
2.90608 -1.59524 -20.5483 255 0 0
2.90608 -1.60431 -20.5483 255 0 0
2.90608 -1.61338 -20.5483 255 0 0
2.90608 -1.62245 -20.5483 255 0 0
2.90608 -1.63152 -20.5483 255 0 0
2.90608 -1.64059 -20.5483 255 0 0
2.90608 -1.64966 -20.5483 255 0 0
2.90608 -1.65873 -20.5483 255 0 0
2.90608 -1.6678 -20.5483 255 0 0
2.90608 -1.67687 -20.5483 255 0 0
2.90608 -1.68595 -20.5483 255 0 0
2.90608 -1.69502 -20.5483 255 0 0
2.90608 -1.70409 -20.5483 255 0 0
2.90608 -1.71316 -20.5483 255 0 0
2.90608 -1.72223 -20.5483 255 0 0
2.90608 -1.7313 -20.5483 255 0 0
2.90608 -1.74037 -20.5483 255 0 0
2.90608 -1.74944 -20.5483 255 0 0
2.90608 -1.75851 -20.5483 255 0 0
2.90608 -1.76758 -20.5483 255 0 0
2.90608 -1.77665 -20.5483 255 0 0
2.90608 -1.78573 -20.5483 255 0 0
2.90608 -1.7948 -20.5483 255 0 0
2.90608 -1.80387 -20.5483 255 0 0
2.90608 -1.81294 -20.5483 255 0 0
2.90608 -1.82201 -20.5483 255 0 0
2.90608 -1.83108 -20.5483 255 0 0
2.90608 -1.84015 -20.5483 255 0 0
2.90608 -1.84922 -20.5483 255 0 0
2.90608 -1.85829 -20.5483 255 0 0
2.90608 -1.86736 -20.5483 255 0 0
2.90608 -1.87643 -20.5483 255 0 0
2.90608 -1.88551 -20.5483 255 0 0
2.90608 -1.89458 -20.5483 255 0 0
2.90608 -1.90365 -20.5483 255 0 0
2.90608 -1.91272 -20.5483 255 0 0
2.90608 -1.92179 -20.5483 255 0 0
2.90608 -1.93086 -20.5483 255 0 0
2.90608 -1.93993 -20.5483 255 0 0
2.90608 -1.949 -20.5483 255 0 0
2.90608 -1.95807 -20.5483 255 0 0
2.90608 -1.96714 -20.5483 255 0 0
2.90608 -1.97621 -20.5483 255 0 0
2.90608 -1.98529 -20.5483 255 0 0
2.90608 -1.99436 -20.5483 255 0 0
2.90608 -2.00343 -20.5483 255 0 0
2.90608 -2.0125 -20.5483 255 0 0
2.90608 -2.02157 -20.5483 255 0 0
2.90608 -2.03064 -20.5483 255 0 0
2.90608 -2.03971 -20.5483 255 0 0
2.90608 -2.04878 -20.5483 255 0 0
2.90608 -2.05785 -20.5483 255 0 0
2.90608 -2.06692 -20.5483 255 0 0
2.90608 -2.07599 -20.5483 255 0 0
2.90608 -2.08506 -20.5483 255 0 0
2.90608 -2.09414 -20.5483 255 0 0
2.90608 -2.10321 -20.5483 255 0 0
2.90916 -2.11452 -20.5701 255 0 0
2.90916 -2.1236 -20.5701 255 0 0
2.90608 -2.13042 -20.5483 255 0 0
2.90608 -2.13949 -20.5483 255 0 0
2.90608 -2.14856 -20.5483 255 0 0
2.90608 -2.15763 -20.5483 255 0 0
2.90608 -2.1667 -20.5483 255 0 0
2.90608 -2.17577 -20.5483 255 0 0
2.90608 -2.18484 -20.5483 255 0 0
2.90608 -2.19392 -20.5483 255 0 0
2.90916 -2.20532 -20.5701 255 0 0
2.90916 -2.2144 -20.5701 255 0 0
2.90916 -2.22348 -20.5701 255 0 0
2.90916 -2.23256 -20.5701 255 0 0
2.94034 -2.26567 -20.7906 255 0 0
2.94034 -2.27485 -20.7906 255 0 0
2.94034 -2.28403 -20.7906 255 0 0
2.94034 -2.2932 -20.7906 255 0 0
2.90916 -2.27797 -20.5701 255 0 0
2.90916 -2.28705 -20.5701 255 0 0
2.90916 -2.29613 -20.5701 255 0 0
2.90916 -2.30521 -20.5701 255 0 0
2.90608 -2.31184 -20.5483 255 0 0
2.90608 -2.32091 -20.5483 255 0 0
2.90608 -2.32998 -20.5483 255 0 0
2.90608 -2.33905 -20.5483 255 0 0
2.90608 -2.34812 -20.5483 255 0 0
2.90608 -2.35719 -20.5483 255 0 0
2.90608 -2.36626 -20.5483 255 0 0
2.90608 -2.37533 -20.5483 255 0 0
2.90608 -2.3844 -20.5483 255 0 0
2.90608 -2.39348 -20.5483 255 0 0
2.90608 -2.40255 -20.5483 255 0 0
2.90608 -2.41162 -20.5483 255 0 0
2.90608 -2.42069 -20.5483 255 0 0
2.90608 -2.42976 -20.5483 255 0 0
2.90608 -2.43883 -20.5483 255 0 0
2.90608 -2.4479 -20.5483 255 0 0
2.90608 -2.45697 -20.5483 255 0 0
2.90608 -2.46604 -20.5483 255 0 0
2.90608 -2.47511 -20.5483 255 0 0
2.90608 -2.48418 -20.5483 255 0 0
2.90916 -2.4959 -20.5701 255 0 0
2.90916 -2.50498 -20.5701 255 0 0
2.90916 -2.51406 -20.5701 255 0 0
2.90916 -2.52314 -20.5701 255 0 0
2.90916 -2.53222 -20.5701 255 0 0
2.90916 -2.5413 -20.5701 255 0 0
2.90916 -2.55038 -20.5701 255 0 0
2.90916 -2.55946 -20.5701 255 0 0
2.74299 0.353313 -19.456 255 0 0
2.74299 0.344725 -19.456 255 0 0
2.78773 0.341618 -19.7733 255 0 0
2.78773 0.332889 -19.7733 255 0 0
2.78773 0.324161 -19.7733 255 0 0
2.78773 0.315432 -19.7733 255 0 0
2.75404 0.268504 -19.5344 255 0 0
2.75404 0.25988 -19.5344 255 0 0
2.75404 0.251257 -19.5344 255 0 0
2.75404 0.242634 -19.5344 255 0 0
2.75682 0.234246 -19.5541 255 0 0
2.75682 0.225614 -19.5541 255 0 0
2.75682 0.216982 -19.5541 255 0 0
2.75682 0.20835 -19.5541 255 0 0
2.77078 0.20073 -19.6531 255 0 0
2.77078 0.192054 -19.6531 255 0 0
2.77078 0.183379 -19.6531 255 0 0
2.77078 0.174703 -19.6531 255 0 0
2.77078 0.166027 -19.6531 255 0 0
2.77078 0.157351 -19.6531 255 0 0
2.77078 0.148676 -19.6531 255 0 0
2.77078 0.14 -19.6531 255 0 0
2.77078 0.131324 -19.6531 255 0 0
2.77078 0.122649 -19.6531 255 0 0
2.77078 0.113973 -19.6531 255 0 0
2.77078 0.105297 -19.6531 255 0 0
2.77078 0.0966215 -19.6531 255 0 0
2.77078 0.0879457 -19.6531 255 0 0
2.77078 0.07927 -19.6531 255 0 0
2.77078 0.0705943 -19.6531 255 0 0
2.77078 0.0619186 -19.6531 255 0 0
2.77078 0.0532429 -19.6531 255 0 0
2.77078 0.0445672 -19.6531 255 0 0
2.77078 0.0358914 -19.6531 255 0 0
2.79914 0.0274943 -19.8543 255 0 0
2.79914 0.0187298 -19.8543 255 0 0
2.79914 0.00996525 -19.8543 255 0 0
2.79914 0.00120074 -19.8543 255 0 0
2.80201 -0.00757153 -19.8746 255 0 0
2.80201 -0.016345 -19.8746 255 0 0
2.79914 -0.0250928 -19.8543 255 0 0
2.79914 -0.0338573 -19.8543 255 0 0
2.79914 -0.0426218 -19.8543 255 0 0
2.79914 -0.0513864 -19.8543 255 0 0
2.77078 -0.0595414 -19.6531 255 0 0
2.77078 -0.0682172 -19.6531 255 0 0
2.77078 -0.0768929 -19.6531 255 0 0
2.77078 -0.0855686 -19.6531 255 0 0
2.77078 -0.0942443 -19.6531 255 0 0
2.77078 -0.10292 -19.6531 255 0 0
2.77078 -0.111596 -19.6531 255 0 0
2.77078 -0.120271 -19.6531 255 0 0
2.77078 -0.128947 -19.6531 255 0 0
2.77078 -0.137623 -19.6531 255 0 0
2.77078 -0.146299 -19.6531 255 0 0
2.77078 -0.154974 -19.6531 255 0 0
2.77078 -0.16365 -19.6531 255 0 0
2.77078 -0.172326 -19.6531 255 0 0
2.77078 -0.181001 -19.6531 255 0 0
2.77078 -0.189677 -19.6531 255 0 0
2.77078 -0.198353 -19.6531 255 0 0
2.77078 -0.207029 -19.6531 255 0 0
2.77078 -0.215704 -19.6531 255 0 0
2.77078 -0.22438 -19.6531 255 0 0
2.79914 -0.235441 -19.8543 255 0 0
2.79914 -0.244206 -19.8543 255 0 0
2.79914 -0.25297 -19.8543 255 0 0
2.79914 -0.261735 -19.8543 255 0 0
2.80201 -0.270776 -19.8746 255 0 0
2.80201 -0.27955 -19.8746 255 0 0
2.81644 -0.289808 -19.977 255 0 0
2.81644 -0.298627 -19.977 255 0 0
2.81644 -0.307445 -19.977 255 0 0
2.81644 -0.316264 -19.977 255 0 0
2.84871 -0.328808 -20.2059 255 0 0
2.84871 -0.337727 -20.2059 255 0 0
2.89393 -0.352149 -20.5266 255 0 0
2.89393 -0.361211 -20.5266 255 0 0
2.89393 -0.370272 -20.5266 255 0 0
2.89393 -0.379333 -20.5266 255 0 0
2.86363 -0.384328 -20.3117 255 0 0
2.86363 -0.393294 -20.3117 255 0 0
2.84871 -0.400165 -20.2059 255 0 0
2.84871 -0.409085 -20.2059 255 0 0
2.86363 -0.420193 -20.3117 255 0 0
2.86363 -0.42916 -20.3117 255 0 0
2.86363 -0.438126 -20.3117 255 0 0
2.86363 -0.447093 -20.3117 255 0 0
2.86363 -0.456059 -20.3117 255 0 0
2.86363 -0.465026 -20.3117 255 0 0
2.89393 -0.479008 -20.5266 255 0 0
2.89393 -0.488069 -20.5266 255 0 0
2.89393 -0.49713 -20.5266 255 0 0
2.89393 -0.506192 -20.5266 255 0 0
2.89393 -0.515253 -20.5266 255 0 0
2.89393 -0.524314 -20.5266 255 0 0
2.86363 -0.52779 -20.3117 255 0 0
2.86363 -0.536757 -20.3117 255 0 0
2.86363 -0.545723 -20.3117 255 0 0
2.86363 -0.55469 -20.3117 255 0 0
2.86363 -0.563656 -20.3117 255 0 0
2.86363 -0.572623 -20.3117 255 0 0
2.89699 -0.588366 -20.5483 255 0 0
2.89699 -0.597437 -20.5483 255 0 0
2.89393 -0.605866 -20.5266 255 0 0
2.89393 -0.614927 -20.5266 255 0 0
2.89393 -0.623989 -20.5266 255 0 0
2.89393 -0.63305 -20.5266 255 0 0
2.89393 -0.642111 -20.5266 255 0 0
2.89393 -0.651172 -20.5266 255 0 0
2.86363 -0.65332 -20.3117 255 0 0
2.86363 -0.662287 -20.3117 255 0 0
2.86363 -0.671253 -20.3117 255 0 0
2.86363 -0.68022 -20.3117 255 0 0
2.89393 -0.696479 -20.5266 255 0 0
2.89393 -0.70554 -20.5266 255 0 0
2.89393 -0.714602 -20.5266 255 0 0
2.89393 -0.723663 -20.5266 255 0 0
2.89699 -0.7335 -20.5483 255 0 0
2.89699 -0.742571 -20.5483 255 0 0
2.89699 -0.751642 -20.5483 255 0 0
2.89699 -0.760713 -20.5483 255 0 0
2.91242 -0.773883 -20.6577 255 0 0
2.91242 -0.783002 -20.6577 255 0 0
2.94377 -0.800648 -20.8801 255 0 0
2.94377 -0.809865 -20.8801 255 0 0
2.91242 -0.81036 -20.6577 255 0 0
2.91242 -0.819479 -20.6577 255 0 0
2.91242 -0.828598 -20.6577 255 0 0
2.91242 -0.837717 -20.6577 255 0 0
2.91242 -0.846837 -20.6577 255 0 0
2.91242 -0.855956 -20.6577 255 0 0
2.91242 -0.865075 -20.6577 255 0 0
2.91242 -0.874194 -20.6577 255 0 0
2.91242 -0.883313 -20.6577 255 0 0
2.91242 -0.892433 -20.6577 255 0 0
2.91242 -0.901552 -20.6577 255 0 0
2.91242 -0.910671 -20.6577 255 0 0
2.91242 -0.91979 -20.6577 255 0 0
2.91242 -0.928909 -20.6577 255 0 0
2.8787 -0.927167 -20.4186 255 0 0
2.8787 -0.936181 -20.4186 255 0 0
2.89393 -0.950196 -20.5266 255 0 0
2.89393 -0.959257 -20.5266 255 0 0
2.86363 -0.958179 -20.3117 255 0 0
2.86363 -0.967145 -20.3117 255 0 0
2.89393 -0.986441 -20.5266 255 0 0
2.89393 -0.995502 -20.5266 255 0 0
2.89087 -1.0035 -20.5049 255 0 0
2.89087 -1.01255 -20.5049 255 0 0
2.89087 -1.0216 -20.5049 255 0 0
2.89087 -1.03066 -20.5049 255 0 0
2.86063 -1.02883 -20.2904 255 0 0
2.86063 -1.03779 -20.2904 255 0 0
2.86363 -1.04784 -20.3117 255 0 0
2.86363 -1.05681 -20.3117 255 0 0
2.86363 -1.06578 -20.3117 255 0 0
2.86363 -1.07474 -20.3117 255 0 0
2.89393 -1.09518 -20.5266 255 0 0
2.89393 -1.10424 -20.5266 255 0 0
2.89393 -1.1133 -20.5266 255 0 0
2.89393 -1.12236 -20.5266 255 0 0
2.89393 -1.13142 -20.5266 255 0 0
2.89393 -1.14048 -20.5266 255 0 0
2.86363 -1.13751 -20.3117 255 0 0
2.86363 -1.14647 -20.3117 255 0 0
2.86363 -1.15544 -20.3117 255 0 0
2.86363 -1.16441 -20.3117 255 0 0
2.86363 -1.17337 -20.3117 255 0 0
2.86363 -1.18234 -20.3117 255 0 0
2.86363 -1.19131 -20.3117 255 0 0
2.86363 -1.20027 -20.3117 255 0 0
2.86363 -1.20924 -20.3117 255 0 0
2.86363 -1.2182 -20.3117 255 0 0
2.86363 -1.22717 -20.3117 255 0 0
2.86363 -1.23614 -20.3117 255 0 0
2.86363 -1.2451 -20.3117 255 0 0
2.86363 -1.25407 -20.3117 255 0 0
2.86363 -1.26304 -20.3117 255 0 0
2.86363 -1.272 -20.3117 255 0 0
2.89393 -1.29453 -20.5266 255 0 0
2.89393 -1.30359 -20.5266 255 0 0
2.89393 -1.31265 -20.5266 255 0 0
2.89393 -1.32171 -20.5266 255 0 0
2.89393 -1.33077 -20.5266 255 0 0
2.89393 -1.33983 -20.5266 255 0 0
2.89393 -1.34889 -20.5266 255 0 0
2.89393 -1.35795 -20.5266 255 0 0
2.89393 -1.36702 -20.5266 255 0 0
2.89393 -1.37608 -20.5266 255 0 0
2.89393 -1.38514 -20.5266 255 0 0
2.89393 -1.3942 -20.5266 255 0 0
2.89393 -1.40326 -20.5266 255 0 0
2.89393 -1.41232 -20.5266 255 0 0
2.89393 -1.42138 -20.5266 255 0 0
2.89393 -1.43044 -20.5266 255 0 0
2.89393 -1.43951 -20.5266 255 0 0
2.89393 -1.44857 -20.5266 255 0 0
2.89393 -1.45763 -20.5266 255 0 0
2.89393 -1.46669 -20.5266 255 0 0
2.86363 -1.4603 -20.3117 255 0 0
2.86363 -1.46926 -20.3117 255 0 0
2.86363 -1.47823 -20.3117 255 0 0
2.86363 -1.4872 -20.3117 255 0 0
2.86363 -1.49616 -20.3117 255 0 0
2.86363 -1.50513 -20.3117 255 0 0
2.89393 -1.53012 -20.5266 255 0 0
2.89393 -1.53918 -20.5266 255 0 0
2.89393 -1.54824 -20.5266 255 0 0
2.89393 -1.5573 -20.5266 255 0 0
2.89393 -1.56636 -20.5266 255 0 0
2.89393 -1.57543 -20.5266 255 0 0
2.89393 -1.58449 -20.5266 255 0 0
2.89393 -1.59355 -20.5266 255 0 0
2.89393 -1.60261 -20.5266 255 0 0
2.89393 -1.61167 -20.5266 255 0 0
2.89393 -1.62073 -20.5266 255 0 0
2.89393 -1.62979 -20.5266 255 0 0
2.89699 -1.64059 -20.5483 255 0 0
2.89699 -1.64966 -20.5483 255 0 0
2.89393 -1.65698 -20.5266 255 0 0
2.89393 -1.66604 -20.5266 255 0 0
2.89393 -1.6751 -20.5266 255 0 0
2.89393 -1.68416 -20.5266 255 0 0
2.89699 -1.69502 -20.5483 255 0 0
2.89699 -1.70409 -20.5483 255 0 0
2.89699 -1.71316 -20.5483 255 0 0
2.89699 -1.72223 -20.5483 255 0 0
2.89699 -1.7313 -20.5483 255 0 0
2.89699 -1.74037 -20.5483 255 0 0
2.89699 -1.74944 -20.5483 255 0 0
2.89699 -1.75851 -20.5483 255 0 0
2.89393 -1.76571 -20.5266 255 0 0
2.89393 -1.77477 -20.5266 255 0 0
2.89393 -1.78384 -20.5266 255 0 0
2.89393 -1.7929 -20.5266 255 0 0
2.89393 -1.80196 -20.5266 255 0 0
2.89393 -1.81102 -20.5266 255 0 0
2.89393 -1.82008 -20.5266 255 0 0
2.89393 -1.82914 -20.5266 255 0 0
2.89393 -1.8382 -20.5266 255 0 0
2.89393 -1.84726 -20.5266 255 0 0
2.89699 -1.85829 -20.5483 255 0 0
2.89699 -1.86736 -20.5483 255 0 0
2.89699 -1.87643 -20.5483 255 0 0
2.89699 -1.88551 -20.5483 255 0 0
2.89699 -1.89458 -20.5483 255 0 0
2.89699 -1.90365 -20.5483 255 0 0
2.89393 -1.91069 -20.5266 255 0 0
2.89393 -1.91976 -20.5266 255 0 0
2.89393 -1.92882 -20.5266 255 0 0
2.89393 -1.93788 -20.5266 255 0 0
2.89393 -1.94694 -20.5266 255 0 0
2.89393 -1.956 -20.5266 255 0 0
2.89393 -1.96506 -20.5266 255 0 0
2.89393 -1.97412 -20.5266 255 0 0
2.89393 -1.98318 -20.5266 255 0 0
2.89393 -1.99225 -20.5266 255 0 0
2.89393 -2.00131 -20.5266 255 0 0
2.89393 -2.01037 -20.5266 255 0 0
2.89393 -2.01943 -20.5266 255 0 0
2.89393 -2.02849 -20.5266 255 0 0
2.89393 -2.03755 -20.5266 255 0 0
2.89393 -2.04661 -20.5266 255 0 0
2.89393 -2.05567 -20.5266 255 0 0
2.89393 -2.06474 -20.5266 255 0 0
2.89699 -2.07599 -20.5483 255 0 0
2.89699 -2.08506 -20.5483 255 0 0
2.89699 -2.09414 -20.5483 255 0 0
2.89699 -2.10321 -20.5483 255 0 0
2.89699 -2.11228 -20.5483 255 0 0
2.89699 -2.12135 -20.5483 255 0 0
2.89699 -2.13042 -20.5483 255 0 0
2.89699 -2.13949 -20.5483 255 0 0
2.89699 -2.14856 -20.5483 255 0 0
2.89699 -2.15763 -20.5483 255 0 0
2.89699 -2.1667 -20.5483 255 0 0
2.89699 -2.17577 -20.5483 255 0 0
2.89699 -2.18484 -20.5483 255 0 0
2.89699 -2.19392 -20.5483 255 0 0
2.89393 -2.20066 -20.5266 255 0 0
2.89393 -2.20972 -20.5266 255 0 0
2.89393 -2.21878 -20.5266 255 0 0
2.89393 -2.22784 -20.5266 255 0 0
2.90932 -2.2488 -20.6358 255 0 0
2.90932 -2.25791 -20.6358 255 0 0
2.90932 -2.26702 -20.6358 255 0 0
2.90932 -2.27613 -20.6358 255 0 0
2.89393 -2.27315 -20.5266 255 0 0
2.89393 -2.28221 -20.5266 255 0 0
2.89699 -2.2937 -20.5483 255 0 0
2.89699 -2.30277 -20.5483 255 0 0
2.89699 -2.31184 -20.5483 255 0 0
2.89699 -2.32091 -20.5483 255 0 0
2.89699 -2.32998 -20.5483 255 0 0
2.89699 -2.33905 -20.5483 255 0 0
2.89393 -2.34564 -20.5266 255 0 0
2.89393 -2.3547 -20.5266 255 0 0
2.89393 -2.36376 -20.5266 255 0 0
2.89393 -2.37282 -20.5266 255 0 0
2.89393 -2.38188 -20.5266 255 0 0
2.89393 -2.39094 -20.5266 255 0 0
2.89393 -2.4 -20.5266 255 0 0
2.89393 -2.40907 -20.5266 255 0 0
2.89699 -2.42069 -20.5483 255 0 0
2.89699 -2.42976 -20.5483 255 0 0
2.89699 -2.43883 -20.5483 255 0 0
2.89699 -2.4479 -20.5483 255 0 0
2.89699 -2.45697 -20.5483 255 0 0
2.89699 -2.46604 -20.5483 255 0 0
2.89699 -2.47511 -20.5483 255 0 0
2.89699 -2.48418 -20.5483 255 0 0
2.89393 -2.49062 -20.5266 255 0 0
2.89393 -2.49968 -20.5266 255 0 0
2.89393 -2.50874 -20.5266 255 0 0
2.89393 -2.5178 -20.5266 255 0 0
2.89393 -2.52686 -20.5266 255 0 0
2.89393 -2.53592 -20.5266 255 0 0
2.89393 -2.54499 -20.5266 255 0 0
2.89393 -2.55405 -20.5266 255 0 0
2.89699 -2.56582 -20.5483 255 0 0
2.74541 0.354737 -19.5344 255 0 0
2.74541 0.346113 -19.5344 255 0 0
2.79037 0.343017 -19.8543 255 0 0
2.79037 0.334252 -19.8543 255 0 0
2.79037 0.325488 -19.8543 255 0 0
2.79037 0.316723 -19.8543 255 0 0
2.73439 0.267426 -19.456 255 0 0
2.73439 0.258838 -19.456 255 0 0
2.73439 0.250249 -19.456 255 0 0
2.73439 0.24166 -19.456 255 0 0
2.74817 0.234246 -19.5541 255 0 0
2.74817 0.225614 -19.5541 255 0 0
2.74817 0.216982 -19.5541 255 0 0
2.74817 0.20835 -19.5541 255 0 0
2.75095 0.19992 -19.5738 255 0 0
2.75095 0.191279 -19.5738 255 0 0
2.75095 0.182638 -19.5738 255 0 0
2.75095 0.173998 -19.5738 255 0 0
2.75095 0.165357 -19.5738 255 0 0
2.75095 0.156716 -19.5738 255 0 0
2.75095 0.148076 -19.5738 255 0 0
2.75095 0.139435 -19.5738 255 0 0
2.75095 0.130794 -19.5738 255 0 0
2.75095 0.122154 -19.5738 255 0 0
2.75095 0.113513 -19.5738 255 0 0
2.75095 0.104872 -19.5738 255 0 0
2.75095 0.0962315 -19.5738 255 0 0
2.75095 0.0875908 -19.5738 255 0 0
2.75095 0.0789501 -19.5738 255 0 0
2.75095 0.0703094 -19.5738 255 0 0
2.75095 0.0616687 -19.5738 255 0 0
2.75095 0.053028 -19.5738 255 0 0
2.75095 0.0443873 -19.5738 255 0 0
2.75095 0.0357466 -19.5738 255 0 0
2.77899 0.0273822 -19.7733 255 0 0
2.77899 0.0186534 -19.7733 255 0 0
2.77899 0.00992462 -19.7733 255 0 0
2.77899 0.00119584 -19.7733 255 0 0
2.79323 -0.00757153 -19.8746 255 0 0
2.79323 -0.016345 -19.8746 255 0 0
2.77899 -0.0249905 -19.7733 255 0 0
2.77899 -0.0337193 -19.7733 255 0 0
2.77899 -0.0424481 -19.7733 255 0 0
2.77899 -0.0511768 -19.7733 255 0 0
2.75095 -0.0593011 -19.5738 255 0 0
2.75095 -0.0679418 -19.5738 255 0 0
2.75095 -0.0765825 -19.5738 255 0 0
2.75095 -0.0852232 -19.5738 255 0 0
2.75095 -0.0938639 -19.5738 255 0 0
2.75095 -0.102505 -19.5738 255 0 0
2.75095 -0.111145 -19.5738 255 0 0
2.75095 -0.119786 -19.5738 255 0 0
2.75095 -0.128427 -19.5738 255 0 0
2.75095 -0.137067 -19.5738 255 0 0
2.75095 -0.145708 -19.5738 255 0 0
2.75095 -0.154349 -19.5738 255 0 0
2.75095 -0.162989 -19.5738 255 0 0
2.75095 -0.17163 -19.5738 255 0 0
2.75095 -0.180271 -19.5738 255 0 0
2.75095 -0.188912 -19.5738 255 0 0
2.75095 -0.197552 -19.5738 255 0 0
2.75095 -0.206193 -19.5738 255 0 0
2.75095 -0.214834 -19.5738 255 0 0
2.75095 -0.223474 -19.5738 255 0 0
2.77899 -0.234481 -19.7733 255 0 0
2.77899 -0.24321 -19.7733 255 0 0
2.77899 -0.251939 -19.7733 255 0 0
2.77899 -0.260668 -19.7733 255 0 0
2.79323 -0.270776 -19.8746 255 0 0
2.79323 -0.27955 -19.8746 255 0 0
2.79609 -0.288619 -19.895 255 0 0
2.79609 -0.297402 -19.895 255 0 0
2.79609 -0.306184 -19.895 255 0 0
2.79609 -0.314967 -19.895 255 0 0
2.83978 -0.328808 -20.2059 255 0 0
2.83978 -0.337727 -20.2059 255 0 0
2.8727 -0.350665 -20.4401 255 0 0
2.8727 -0.359688 -20.4401 255 0 0
2.8727 -0.368711 -20.4401 255 0 0
2.8727 -0.377734 -20.4401 255 0 0
2.84274 -0.382725 -20.2269 255 0 0
2.84274 -0.391654 -20.2269 255 0 0
2.83978 -0.400165 -20.2059 255 0 0
2.83978 -0.409085 -20.2059 255 0 0
2.84274 -0.418441 -20.2269 255 0 0
2.84274 -0.42737 -20.2269 255 0 0
2.84274 -0.436299 -20.2269 255 0 0
2.84274 -0.445228 -20.2269 255 0 0
2.84274 -0.454157 -20.2269 255 0 0
2.84274 -0.463086 -20.2269 255 0 0
2.8727 -0.476989 -20.4401 255 0 0
2.8727 -0.486012 -20.4401 255 0 0
2.8727 -0.495035 -20.4401 255 0 0
2.8727 -0.504058 -20.4401 255 0 0
2.8727 -0.513081 -20.4401 255 0 0
2.8727 -0.522104 -20.4401 255 0 0
2.84274 -0.525589 -20.2269 255 0 0
2.84274 -0.534518 -20.2269 255 0 0
2.84274 -0.543447 -20.2269 255 0 0
2.84274 -0.552376 -20.2269 255 0 0
2.84274 -0.561305 -20.2269 255 0 0
2.84274 -0.570234 -20.2269 255 0 0
2.88791 -0.588366 -20.5483 255 0 0
2.88791 -0.597437 -20.5483 255 0 0
2.8727 -0.603312 -20.4401 255 0 0
2.8727 -0.612335 -20.4401 255 0 0
2.8727 -0.621358 -20.4401 255 0 0
2.8727 -0.630382 -20.4401 255 0 0
2.8727 -0.639405 -20.4401 255 0 0
2.8727 -0.648428 -20.4401 255 0 0
2.84274 -0.650595 -20.2269 255 0 0
2.84274 -0.659524 -20.2269 255 0 0
2.84274 -0.668453 -20.2269 255 0 0
2.84274 -0.677382 -20.2269 255 0 0
2.8727 -0.693543 -20.4401 255 0 0
2.8727 -0.702566 -20.4401 255 0 0
2.8727 -0.71159 -20.4401 255 0 0
2.8727 -0.720613 -20.4401 255 0 0
2.88791 -0.7335 -20.5483 255 0 0
2.88791 -0.742571 -20.5483 255 0 0
2.88791 -0.751642 -20.5483 255 0 0
2.88791 -0.760713 -20.5483 255 0 0
2.89097 -0.7706 -20.5701 255 0 0
2.89097 -0.779681 -20.5701 255 0 0
2.92196 -0.797215 -20.7906 255 0 0
2.92196 -0.806393 -20.7906 255 0 0
2.89097 -0.806922 -20.5701 255 0 0
2.89097 -0.816003 -20.5701 255 0 0
2.89097 -0.825083 -20.5701 255 0 0
2.89097 -0.834164 -20.5701 255 0 0
2.89097 -0.843245 -20.5701 255 0 0
2.89097 -0.852325 -20.5701 255 0 0
2.89097 -0.861406 -20.5701 255 0 0
2.89097 -0.870486 -20.5701 255 0 0
2.89097 -0.879567 -20.5701 255 0 0
2.89097 -0.888647 -20.5701 255 0 0
2.89097 -0.897728 -20.5701 255 0 0
2.89097 -0.906808 -20.5701 255 0 0
2.89097 -0.915889 -20.5701 255 0 0
2.89097 -0.924969 -20.5701 255 0 0
2.84571 -0.919425 -20.248 255 0 0
2.84571 -0.928363 -20.248 255 0 0
2.8727 -0.94619 -20.4401 255 0 0
2.8727 -0.955214 -20.4401 255 0 0
2.84274 -0.954182 -20.2269 255 0 0
2.84274 -0.963111 -20.2269 255 0 0
2.8727 -0.982283 -20.4401 255 0 0
2.8727 -0.991306 -20.4401 255 0 0
2.85764 -0.995086 -20.3329 255 0 0
2.85764 -1.00406 -20.3329 255 0 0
2.85764 -1.01304 -20.3329 255 0 0
2.85764 -1.02201 -20.3329 255 0 0
2.828 -1.02029 -20.122 255 0 0
2.828 -1.02918 -20.122 255 0 0
2.84274 -1.04347 -20.2269 255 0 0
2.84274 -1.0524 -20.2269 255 0 0
2.84274 -1.06133 -20.2269 255 0 0
2.84274 -1.07026 -20.2269 255 0 0
2.8727 -1.09056 -20.4401 255 0 0
2.8727 -1.09958 -20.4401 255 0 0
2.8727 -1.10861 -20.4401 255 0 0
2.8727 -1.11763 -20.4401 255 0 0
2.8727 -1.12665 -20.4401 255 0 0
2.8727 -1.13568 -20.4401 255 0 0
2.84274 -1.13276 -20.2269 255 0 0
2.84274 -1.14169 -20.2269 255 0 0
2.84274 -1.15062 -20.2269 255 0 0
2.84274 -1.15955 -20.2269 255 0 0
2.84274 -1.16848 -20.2269 255 0 0
2.84274 -1.17741 -20.2269 255 0 0
2.84274 -1.18634 -20.2269 255 0 0
2.84274 -1.19527 -20.2269 255 0 0
2.84274 -1.20419 -20.2269 255 0 0
2.84274 -1.21312 -20.2269 255 0 0
2.84274 -1.22205 -20.2269 255 0 0
2.84274 -1.23098 -20.2269 255 0 0
2.84274 -1.23991 -20.2269 255 0 0
2.84274 -1.24884 -20.2269 255 0 0
2.84274 -1.25777 -20.2269 255 0 0
2.84274 -1.2667 -20.2269 255 0 0
2.8727 -1.28907 -20.4401 255 0 0
2.8727 -1.29809 -20.4401 255 0 0
2.8727 -1.30711 -20.4401 255 0 0
2.8727 -1.31614 -20.4401 255 0 0
2.8727 -1.32516 -20.4401 255 0 0
2.8727 -1.33418 -20.4401 255 0 0
2.8727 -1.34321 -20.4401 255 0 0
2.8727 -1.35223 -20.4401 255 0 0
2.8727 -1.36125 -20.4401 255 0 0
2.8727 -1.37028 -20.4401 255 0 0
2.8727 -1.3793 -20.4401 255 0 0
2.8727 -1.38832 -20.4401 255 0 0
2.8727 -1.39735 -20.4401 255 0 0
2.8727 -1.40637 -20.4401 255 0 0
2.8727 -1.41539 -20.4401 255 0 0
2.8727 -1.42442 -20.4401 255 0 0
2.8727 -1.43344 -20.4401 255 0 0
2.8727 -1.44246 -20.4401 255 0 0
2.8727 -1.45148 -20.4401 255 0 0
2.8727 -1.46051 -20.4401 255 0 0
2.84274 -1.45421 -20.2269 255 0 0
2.84274 -1.46314 -20.2269 255 0 0
2.84274 -1.47207 -20.2269 255 0 0
2.84274 -1.48099 -20.2269 255 0 0
2.84274 -1.48992 -20.2269 255 0 0
2.84274 -1.49885 -20.2269 255 0 0
2.8727 -1.52367 -20.4401 255 0 0
2.8727 -1.53269 -20.4401 255 0 0
2.8727 -1.54172 -20.4401 255 0 0
2.8727 -1.55074 -20.4401 255 0 0
2.8727 -1.55976 -20.4401 255 0 0
2.8727 -1.56879 -20.4401 255 0 0
2.8727 -1.57781 -20.4401 255 0 0
2.8727 -1.58683 -20.4401 255 0 0
2.8727 -1.59585 -20.4401 255 0 0
2.8727 -1.60488 -20.4401 255 0 0
2.8727 -1.6139 -20.4401 255 0 0
2.8727 -1.62292 -20.4401 255 0 0
2.88791 -1.64059 -20.5483 255 0 0
2.88791 -1.64966 -20.5483 255 0 0
2.8727 -1.64999 -20.4401 255 0 0
2.8727 -1.65902 -20.4401 255 0 0
2.8727 -1.66804 -20.4401 255 0 0
2.8727 -1.67706 -20.4401 255 0 0
2.88791 -1.69502 -20.5483 255 0 0
2.88791 -1.70409 -20.5483 255 0 0
2.88791 -1.71316 -20.5483 255 0 0
2.88791 -1.72223 -20.5483 255 0 0
2.88791 -1.7313 -20.5483 255 0 0
2.88791 -1.74037 -20.5483 255 0 0
2.88791 -1.74944 -20.5483 255 0 0
2.88791 -1.75851 -20.5483 255 0 0
2.8727 -1.75827 -20.4401 255 0 0
2.8727 -1.76729 -20.4401 255 0 0
2.8727 -1.77632 -20.4401 255 0 0
2.8727 -1.78534 -20.4401 255 0 0
2.8727 -1.79436 -20.4401 255 0 0
2.8727 -1.80339 -20.4401 255 0 0
2.8727 -1.81241 -20.4401 255 0 0
2.8727 -1.82143 -20.4401 255 0 0
2.8727 -1.83046 -20.4401 255 0 0
2.8727 -1.83948 -20.4401 255 0 0
2.88791 -1.85829 -20.5483 255 0 0
2.88791 -1.86736 -20.5483 255 0 0
2.88791 -1.87643 -20.5483 255 0 0
2.88791 -1.88551 -20.5483 255 0 0
2.88791 -1.89458 -20.5483 255 0 0
2.88791 -1.90365 -20.5483 255 0 0
2.8727 -1.90264 -20.4401 255 0 0
2.8727 -1.91166 -20.4401 255 0 0
2.8727 -1.92069 -20.4401 255 0 0
2.8727 -1.92971 -20.4401 255 0 0
2.8727 -1.93873 -20.4401 255 0 0
2.8727 -1.94776 -20.4401 255 0 0
2.8727 -1.95678 -20.4401 255 0 0
2.8727 -1.9658 -20.4401 255 0 0
2.8727 -1.97483 -20.4401 255 0 0
2.8727 -1.98385 -20.4401 255 0 0
2.8727 -1.99287 -20.4401 255 0 0
2.8727 -2.00189 -20.4401 255 0 0
2.8727 -2.01092 -20.4401 255 0 0
2.8727 -2.01994 -20.4401 255 0 0
2.8727 -2.02896 -20.4401 255 0 0
2.8727 -2.03799 -20.4401 255 0 0
2.8727 -2.04701 -20.4401 255 0 0
2.8727 -2.05603 -20.4401 255 0 0
2.88791 -2.07599 -20.5483 255 0 0
2.88791 -2.08506 -20.5483 255 0 0
2.88791 -2.09414 -20.5483 255 0 0
2.88791 -2.10321 -20.5483 255 0 0
2.88791 -2.11228 -20.5483 255 0 0
2.88791 -2.12135 -20.5483 255 0 0
2.88791 -2.13042 -20.5483 255 0 0
2.88791 -2.13949 -20.5483 255 0 0
2.88791 -2.14856 -20.5483 255 0 0
2.88791 -2.15763 -20.5483 255 0 0
2.88791 -2.1667 -20.5483 255 0 0
2.88791 -2.17577 -20.5483 255 0 0
2.88791 -2.18484 -20.5483 255 0 0
2.88791 -2.19392 -20.5483 255 0 0
2.8727 -2.19138 -20.4401 255 0 0
2.8727 -2.2004 -20.4401 255 0 0
2.8727 -2.20943 -20.4401 255 0 0
2.8727 -2.21845 -20.4401 255 0 0
2.87573 -2.22982 -20.4616 255 0 0
2.87573 -2.23885 -20.4616 255 0 0
2.87573 -2.24789 -20.4616 255 0 0
2.87573 -2.25692 -20.4616 255 0 0
2.8727 -2.26356 -20.4401 255 0 0
2.8727 -2.27259 -20.4401 255 0 0
2.88791 -2.2937 -20.5483 255 0 0
2.88791 -2.30277 -20.5483 255 0 0
2.88791 -2.31184 -20.5483 255 0 0
2.88791 -2.32091 -20.5483 255 0 0
2.88791 -2.32998 -20.5483 255 0 0
2.88791 -2.33905 -20.5483 255 0 0
2.8727 -2.33575 -20.4401 255 0 0
2.8727 -2.34477 -20.4401 255 0 0
2.8727 -2.3538 -20.4401 255 0 0
2.8727 -2.36282 -20.4401 255 0 0
2.8727 -2.37184 -20.4401 255 0 0
2.8727 -2.38087 -20.4401 255 0 0
2.8727 -2.38989 -20.4401 255 0 0
2.8727 -2.39891 -20.4401 255 0 0
2.88791 -2.42069 -20.5483 255 0 0
2.88791 -2.42976 -20.5483 255 0 0
2.88791 -2.43883 -20.5483 255 0 0
2.88791 -2.4479 -20.5483 255 0 0
2.88791 -2.45697 -20.5483 255 0 0
2.88791 -2.46604 -20.5483 255 0 0
2.88791 -2.47511 -20.5483 255 0 0
2.88791 -2.48418 -20.5483 255 0 0
2.8727 -2.48012 -20.4401 255 0 0
2.8727 -2.48914 -20.4401 255 0 0
2.8727 -2.49817 -20.4401 255 0 0
2.8727 -2.50719 -20.4401 255 0 0
2.8727 -2.51621 -20.4401 255 0 0
2.8727 -2.52523 -20.4401 255 0 0
2.8727 -2.53426 -20.4401 255 0 0
2.8727 -2.54328 -20.4401 255 0 0
2.88791 -2.56582 -20.5483 255 0 0
2.72579 0.370491 -19.456 255 0 0
2.72579 0.361902 -19.456 255 0 0
2.92217 0.378767 -20.8577 255 0 0
2.92217 0.36956 -20.8577 255 0 0
2.97007 0.36626 -21.1996 255 0 0
2.97007 0.356901 -21.1996 255 0 0
2.78444 0.325821 -19.8746 255 0 0
2.78444 0.317048 -19.8746 255 0 0
2.70949 0.265827 -19.3396 255 0 0
2.70949 0.257289 -19.3396 255 0 0
2.70949 0.248752 -19.3396 255 0 0
2.70949 0.240215 -19.3396 255 0 0
2.73953 0.234246 -19.5541 255 0 0
2.73953 0.225614 -19.5541 255 0 0
2.73953 0.216982 -19.5541 255 0 0
2.73953 0.20835 -19.5541 255 0 0
2.73953 0.199718 -19.5541 255 0 0
2.73953 0.191086 -19.5541 255 0 0
2.73953 0.182454 -19.5541 255 0 0
2.73953 0.173822 -19.5541 255 0 0
2.73953 0.16519 -19.5541 255 0 0
2.73953 0.156558 -19.5541 255 0 0
2.73953 0.147926 -19.5541 255 0 0
2.73953 0.139294 -19.5541 255 0 0
2.73953 0.130662 -19.5541 255 0 0
2.73953 0.12203 -19.5541 255 0 0
2.73953 0.113398 -19.5541 255 0 0
2.73953 0.104766 -19.5541 255 0 0
2.73953 0.0961345 -19.5541 255 0 0
2.73953 0.0875025 -19.5541 255 0 0
2.73953 0.0788705 -19.5541 255 0 0
2.73953 0.0702385 -19.5541 255 0 0
2.73953 0.0616065 -19.5541 255 0 0
2.73953 0.0529745 -19.5541 255 0 0
2.73953 0.0443425 -19.5541 255 0 0
2.73953 0.0357105 -19.5541 255 0 0
2.75341 0.0272157 -19.6531 255 0 0
2.75341 0.01854 -19.6531 255 0 0
2.75341 0.00986429 -19.6531 255 0 0
2.75341 0.00118857 -19.6531 255 0 0
2.78159 -0.00756378 -19.8543 255 0 0
2.78159 -0.0163283 -19.8543 255 0 0
2.75341 -0.0248386 -19.6531 255 0 0
2.75341 -0.0335143 -19.6531 255 0 0
2.75341 -0.04219 -19.6531 255 0 0
2.75341 -0.0508657 -19.6531 255 0 0
2.73953 -0.0592413 -19.5541 255 0 0
2.73953 -0.0678733 -19.5541 255 0 0
2.73953 -0.0765053 -19.5541 255 0 0
2.73953 -0.0851373 -19.5541 255 0 0
2.73953 -0.0937693 -19.5541 255 0 0
2.73953 -0.102401 -19.5541 255 0 0
2.73953 -0.111033 -19.5541 255 0 0
2.73953 -0.119665 -19.5541 255 0 0
2.73953 -0.128297 -19.5541 255 0 0
2.73953 -0.136929 -19.5541 255 0 0
2.73953 -0.145561 -19.5541 255 0 0
2.73953 -0.154193 -19.5541 255 0 0
2.73953 -0.162825 -19.5541 255 0 0
2.73953 -0.171457 -19.5541 255 0 0
2.73953 -0.180089 -19.5541 255 0 0
2.73953 -0.188721 -19.5541 255 0 0
2.73953 -0.197353 -19.5541 255 0 0
2.73953 -0.205985 -19.5541 255 0 0
2.73953 -0.214617 -19.5541 255 0 0
2.73953 -0.223249 -19.5541 255 0 0
2.75341 -0.233056 -19.6531 255 0 0
2.75341 -0.241731 -19.6531 255 0 0
2.75341 -0.250407 -19.6531 255 0 0
2.75341 -0.259083 -19.6531 255 0 0
2.78159 -0.270499 -19.8543 255 0 0
2.78159 -0.279264 -19.8543 255 0 0
2.78444 -0.288323 -19.8746 255 0 0
2.78444 -0.297097 -19.8746 255 0 0
2.78444 -0.30587 -19.8746 255 0 0
2.78444 -0.314644 -19.8746 255 0 0
2.8279 -0.328466 -20.1848 255 0 0
2.8279 -0.337376 -20.1848 255 0 0
2.84269 -0.348098 -20.2904 255 0 0
2.84269 -0.357055 -20.2904 255 0 0
2.84269 -0.366012 -20.2904 255 0 0
2.84269 -0.374969 -20.2904 255 0 0
2.8279 -0.381928 -20.1848 255 0 0
2.8279 -0.390839 -20.1848 255 0 0
2.8279 -0.399749 -20.1848 255 0 0
2.8279 -0.408659 -20.1848 255 0 0
2.8279 -0.41757 -20.1848 255 0 0
2.8279 -0.42648 -20.1848 255 0 0
2.8279 -0.435391 -20.1848 255 0 0
2.8279 -0.444301 -20.1848 255 0 0
2.8279 -0.453212 -20.1848 255 0 0
2.8279 -0.462122 -20.1848 255 0 0
2.84269 -0.473496 -20.2904 255 0 0
2.84269 -0.482453 -20.2904 255 0 0
2.84567 -0.491925 -20.3117 255 0 0
2.84567 -0.500891 -20.3117 255 0 0
2.84567 -0.509858 -20.3117 255 0 0
2.84567 -0.518824 -20.3117 255 0 0
2.83085 -0.525042 -20.2059 255 0 0
2.83085 -0.533961 -20.2059 255 0 0
2.83085 -0.542881 -20.2059 255 0 0
2.83085 -0.551801 -20.2059 255 0 0
2.83085 -0.56072 -20.2059 255 0 0
2.83085 -0.56964 -20.2059 255 0 0
2.87578 -0.587743 -20.5266 255 0 0
2.87578 -0.596805 -20.5266 255 0 0
2.84567 -0.599522 -20.3117 255 0 0
2.84567 -0.608488 -20.3117 255 0 0
2.84567 -0.617455 -20.3117 255 0 0
2.84567 -0.626421 -20.3117 255 0 0
2.84567 -0.635388 -20.3117 255 0 0
2.84567 -0.644354 -20.3117 255 0 0
2.8279 -0.649241 -20.1848 255 0 0
2.8279 -0.658152 -20.1848 255 0 0
2.8279 -0.667062 -20.1848 255 0 0
2.8279 -0.675973 -20.1848 255 0 0
2.84269 -0.688465 -20.2904 255 0 0
2.84269 -0.697422 -20.2904 255 0 0
2.84269 -0.706379 -20.2904 255 0 0
2.84269 -0.715336 -20.2904 255 0 0
2.87274 -0.73195 -20.5049 255 0 0
2.87274 -0.741001 -20.5049 255 0 0
2.87274 -0.750053 -20.5049 255 0 0
2.87274 -0.759105 -20.5049 255 0 0
2.87274 -0.768157 -20.5049 255 0 0
2.87274 -0.777208 -20.5049 255 0 0
2.88801 -0.790438 -20.6138 255 0 0
2.88801 -0.799538 -20.6138 255 0 0
