ply
format ascii 1.0
comment author : Loiseau & Broux
comment object : 3d point Cloud
element vertex 1415
property float x
property float y
property float z
property uchar red
property uchar green
property uchar blue
end_header
1.68658 -57.0103 39.6411 29 39 32
1.76194 -59.5554 41.4362 29 38 31
1.76201 -59.5554 41.4616 28 37 31
1.76207 -59.5554 41.487 28 37 31
1.76214 -59.5554 41.5125 28 36 30
1.7622 -59.5554 41.5379 27 36 30
1.76227 -59.5554 41.5633 27 35 29
1.76233 -59.5554 41.5887 26 35 29
1.7624 -59.5554 41.6141 26 35 28
1.76247 -59.5554 41.6395 26 34 28
1.76253 -59.5554 41.6649 26 34 28
1.7626 -59.5554 41.6904 25 34 27
1.76266 -59.5554 41.7158 25 34 27
1.76273 -59.5554 41.7412 25 34 27
1.76279 -59.5554 41.7666 25 34 27
1.85681 -62.7292 44.0192 26 34 27
1.85688 -62.7292 44.0459 26 34 27
2.18423 -73.5598 42.4586 21 27 23
2.18431 -73.5598 42.49 21 28 23
2.18439 -73.5598 42.5214 22 29 24
2.18448 -73.5598 42.5528 22 29 24
2.18456 -73.5598 42.5842 23 30 24
2.18464 -73.5598 42.6156 24 30 25
2.18472 -73.5598 42.647 24 31 25
2.1848 -73.5598 42.6784 25 32 26
2.0635 -69.4731 40.337 25 32 26
2.06358 -69.4731 40.3667 25 33 26
2.06365 -69.4731 40.3963 26 33 27
2.06373 -69.4731 40.426 26 33 27
2.06381 -69.4731 40.4556 26 34 27
2.06388 -69.4731 40.4853 27 34 28
2.20077 -73.8312 45.8922 23 26 21
2.20086 -73.8312 45.9237 22 25 20
1.98158 -66.4726 41.375 21 24 20
1.98165 -66.4726 41.4033 21 23 19
2.09298 -70.2044 43.7577 20 23 19
2.09305 -70.2044 43.7877 19 22 19
1.96231 -65.8166 41.079 19 22 18
1.96238 -65.8166 41.1071 18 21 18
1.87018 -62.7218 39.2009 18 21 18
1.87025 -62.7218 39.2277 17 21 18
1.86447 -62.5258 39.1318 17 21 18
1.86454 -62.5258 39.1585 17 21 19
1.86461 -62.5258 39.1852 17 21 19
1.86468 -62.5258 39.2119 17 22 20
1.86475 -62.5258 39.2385 17 23 21
1.86482 -62.5258 39.2652 17 23 22
1.86489 -62.5258 39.2919 18 24 23
1.86496 -62.5258 39.3186 18 25 25
1.86502 -62.5258 39.3453 19 27 26
1.86509 -62.5258 39.372 19 28 27
1.86516 -62.5258 39.3986 20 29 29
1.86523 -62.5258 39.4253 21 30 30
1.8653 -62.5258 39.452 22 32 31
1.86537 -62.5258 39.4787 23 33 33
1.86544 -62.5258 39.5054 24 35 34
1.86551 -62.5258 39.5321 25 37 36
1.78204 -59.7262 37.7875 27 39 38
1.78211 -59.7262 37.813 28 40 39
1.77687 -59.5484 37.7258 30 42 40
1.77694 -59.5484 37.7512 31 44 42
1.777 -59.5484 37.7767 33 45 43
1.77707 -59.5484 37.8021 34 47 44
1.77714 -59.5484 37.8275 35 48 45
1.7772 -59.5484 37.8529 37 49 45
1.77727 -59.5484 37.8783 38 50 46
1.77733 -59.5484 37.9037 39 51 46
1.7774 -59.5484 37.9291 39 51 45
1.77746 -59.5484 37.9545 40 51 45
1.75147 -58.6753 37.4231 40 51 45
1.75153 -58.6753 37.4481 40 51 44
1.7516 -58.6753 37.4732 40 50 43
1.75166 -58.6753 37.4982 40 50 43
1.77779 -59.5484 38.0816 40 49 42
1.77786 -59.5484 38.107 39 48 41
1.77792 -59.5484 38.1324 39 48 41
1.77799 -59.5484 38.1579 38 47 40
1.77278 -59.3717 38.07 38 46 40
1.77285 -59.3717 38.0953 37 45 39
1.72182 -57.6607 37.0221 36 44 38
1.72188 -57.6607 37.0467 35 43 37
1.69749 -56.8416 36.5447 34 42 37
1.69755 -56.8416 36.569 32 40 36
1.69761 -56.8416 36.5932 31 39 35
1.69768 -56.8416 36.6175 30 38 34
1.72718 -57.8273 37.2771 29 37 34
1.72724 -57.8273 37.3018 28 36 33
1.77871 -59.5484 38.4374 27 35 33
1.77878 -59.5484 38.4628 26 34 32
1.77885 -59.5484 38.4882 25 34 32
1.77891 -59.5484 38.5136 25 33 32
1.77898 -59.5484 38.5391 24 33 31
1.77904 -59.5484 38.5645 24 33 31
1.86806 -62.5258 40.5194 24 33 31
1.86813 -62.5258 40.5461 24 33 31
1.96653 -65.8166 42.7081 24 33 31
1.9666 -65.8166 42.7362 24 33 31
1.99956 -66.9173 43.4794 24 33 31
1.99964 -66.9173 43.508 24 33 30
2.19064 -73.2903 47.8706 25 32 27
2.19073 -73.2903 47.9018 25 31 27
2.06284 -68.994 45.2999 23 28 23
2.06291 -68.994 45.3294 22 27 23
1.78056 -59.5484 39.149 22 27 22
1.78062 -59.5484 39.1744 21 26 22
1.78069 -59.5484 39.1998 21 26 21
1.78075 -59.5484 39.2252 21 25 21
1.78082 -59.5484 39.2506 20 25 21
1.78089 -59.5484 39.276 20 24 21
1.78095 -59.5484 39.3014 20 24 20
1.78102 -59.5484 39.3269 19 24 20
1.78108 -59.5484 39.3523 19 24 20
1.78115 -59.5484 39.3777 19 24 20
1.78121 -59.5484 39.4031 19 24 20
1.78128 -59.5484 39.4285 19 23 20
1.78135 -59.5484 39.4539 19 23 20
1.78141 -59.5484 39.4793 19 23 20
1.78148 -59.5484 39.5048 19 23 20
1.78154 -59.5484 39.5302 18 23 20
1.78161 -59.5484 39.5556 18 23 20
1.78168 -59.5484 39.581 18 24 21
1.78174 -59.5484 39.6064 19 24 21
1.78181 -59.5484 39.6318 19 24 21
1.78187 -59.5484 39.6572 19 25 21
1.78194 -59.5484 39.6826 19 25 22
1.782 -59.5484 39.7081 20 26 22
1.78207 -59.5484 39.7335 20 27 23
1.78214 -59.5484 39.7589 21 27 24
1.7822 -59.5484 39.7843 21 28 24
1.78227 -59.5484 39.8097 22 29 25
1.78233 -59.5484 39.8351 22 29 25
1.7824 -59.5484 39.8605 23 30 25
1.78246 -59.5484 39.886 23 30 26
1.78253 -59.5484 39.9114 23 30 26
1.7826 -59.5484 39.9368 24 31 26
1.78266 -59.5484 39.9622 24 31 26
1.78273 -59.5484 39.9876 24 31 26
1.72628 -57.6607 38.7446 24 31 27
1.72634 -57.6607 38.7692 24 31 27
1.78293 -59.5484 40.0638 24 31 26
1.78299 -59.5484 40.0893 24 31 26
1.78306 -59.5484 40.1147 24 31 26
1.78312 -59.5484 40.1401 24 31 26
1.78319 -59.5484 40.1655 24 31 26
1.78325 -59.5484 40.1909 24 30 26
1.78332 -59.5484 40.2163 23 30 25
1.78339 -59.5484 40.2417 23 30 25
1.78345 -59.5484 40.2671 23 29 25
1.78352 -59.5484 40.2926 22 29 24
1.78358 -59.5484 40.318 22 28 24
1.78365 -59.5484 40.3434 21 28 23
1.73216 -57.8273 39.2021 21 27 23
1.73223 -57.8273 39.2268 21 27 23
1.78385 -59.5484 40.4196 20 26 22
1.78391 -59.5484 40.445 20 26 22
1.78398 -59.5484 40.4705 20 26 22
1.78404 -59.5484 40.4959 20 26 22
1.77882 -59.3717 40.401 20 27 23
1.77888 -59.3717 40.4264 20 27 23
1.72768 -57.6607 39.286 20 27 23
1.72774 -57.6607 39.3106 21 28 23
1.72781 -57.6607 39.3352 21 28 24
1.72787 -57.6607 39.3598 21 29 24
1.73293 -57.8273 39.4982 21 29 25
1.73299 -57.8273 39.5229 22 30 25
1.78464 -59.5484 40.7246 22 30 26
1.7847 -59.5484 40.75 23 31 26
1.78477 -59.5484 40.7754 23 32 27
1.78483 -59.5484 40.8008 24 32 27
1.7796 -59.3717 40.7051 24 33 28
1.77967 -59.3717 40.7304 24 34 28
1.70389 -56.8416 39.019 25 34 29
1.70396 -56.8416 39.0433 25 35 29
1.70402 -56.8416 39.0675 26 36 30
1.70408 -56.8416 39.0918 26 36 30
1.70414 -56.8416 39.1161 27 37 31
1.70421 -56.8416 39.1403 28 38 31
1.70427 -56.8416 39.1646 28 38 32
1.70433 -56.8416 39.1888 29 39 32
1.7044 -56.8416 39.2131 29 40 33
1.70446 -56.8416 39.2373 30 40 33
1.70452 -56.8416 39.2616 30 41 33
1.70458 -56.8416 39.2859 30 41 34
1.70465 -56.8416 39.3101 31 41 34
1.70471 -56.8416 39.3344 31 41 34
1.70477 -56.8416 39.3586 31 42 34
1.70483 -56.8416 39.3829 31 42 34
1.70975 -57.0036 39.5194 31 41 34
1.70982 -57.0036 39.5437 31 41 34
1.72959 -57.6607 40.0242 31 41 33
1.72966 -57.6607 40.0488 30 40 33
1.72972 -57.6607 40.0734 30 39 33
1.72978 -57.6607 40.098 29 39 32
1.78648 -59.5484 41.4362 29 38 32
1.78654 -59.5484 41.4616 28 38 31
1.78661 -59.5484 41.487 28 37 31
1.78668 -59.5484 41.5124 28 37 30
1.78674 -59.5484 41.5378 27 36 30
1.78681 -59.5484 41.5632 27 36 29
1.78687 -59.5484 41.5886 27 35 29
1.78694 -59.5484 41.6141 26 35 29
1.787 -59.5484 41.6395 26 35 28
1.78707 -59.5484 41.6649 26 34 28
1.78714 -59.5484 41.6903 26 34 28
1.7872 -59.5484 41.7157 26 34 28
1.78727 -59.5484 41.7411 26 34 28
1.78733 -59.5484 41.7665 26 34 28
1.90656 -63.5183 44.5781 26 35 28
1.90663 -63.5183 44.6052 26 35 28
2.17174 -72.7488 34.7917 81 91 76
2.17182 -72.7488 34.8228 80 90 76
1.80874 -60.0778 34.6296 20 27 22
1.80881 -60.0778 34.6552 21 27 23
2.21454 -73.5511 42.4586 22 28 23
2.21463 -73.5511 42.49 22 29 24
2.21471 -73.5511 42.5214 23 30 24
2.21479 -73.5511 42.5527 23 30 25
2.21487 -73.5511 42.5841 24 31 25
2.21495 -73.5511 42.6155 24 32 26
2.21503 -73.5511 42.6469 25 32 26
2.21511 -73.5511 42.6783 25 33 26
2.09942 -69.707 40.4775 26 33 27
2.09949 -69.707 40.5072 26 34 27
2.09228 -69.465 40.3962 26 34 27
2.09236 -69.465 40.4259 27 34 28
2.23193 -74.096 43.1526 27 35 28
2.23201 -74.096 43.1842 27 35 28
2.03245 -67.36 40.5521 19 25 22
2.03253 -67.36 40.5809 20 26 23
1.96001 -64.9543 39.1593 21 27 24
1.96008 -64.9543 39.187 22 29 25
2.09223 -69.2246 43.0338 23 26 21
2.09231 -69.2246 43.0634 22 25 21
1.98914 -65.8089 40.9666 21 24 20
1.98922 -65.8089 40.9947 21 24 20
1.98929 -65.8089 41.0228 20 23 19
1.98936 -65.8089 41.0509 19 22 19
1.98943 -65.8089 41.079 19 22 18
1.98951 -65.8089 41.107 18 21 18
1.8901 -62.5185 39.0784 18 21 18
1.89017 -62.5185 39.1051 17 21 18
1.89024 -62.5185 39.1317 17 21 18
1.89031 -62.5185 39.1584 17 21 19
1.89038 -62.5185 39.1851 17 21 19
1.89045 -62.5185 39.2118 17 22 20
1.89051 -62.5185 39.2385 17 23 21
1.89058 -62.5185 39.2652 17 23 22
1.89065 -62.5185 39.2918 18 24 24
1.89072 -62.5185 39.3185 18 25 25
1.89079 -62.5185 39.3452 19 27 26
1.89086 -62.5185 39.3719 19 28 27
1.89093 -62.5185 39.3986 20 29 29
1.891 -62.5185 39.4253 21 30 30
1.89107 -62.5185 39.452 22 32 32
1.89114 -62.5185 39.4786 23 34 33
1.89121 -62.5185 39.5053 25 36 35
1.89127 -62.5185 39.532 26 38 37
1.80666 -59.7191 37.7874 28 39 38
1.80672 -59.7191 37.8129 29 41 40
1.80141 -59.5414 37.7258 31 43 41
1.80148 -59.5414 37.7512 32 45 42
1.80154 -59.5414 37.7766 34 47 44
1.80161 -59.5414 37.802 35 48 45
1.80167 -59.5414 37.8274 36 49 46
1.80174 -59.5414 37.8528 38 50 46
1.80181 -59.5414 37.8782 39 51 46
1.80187 -59.5414 37.9037 39 52 46
1.80194 -59.5414 37.9291 40 52 46
1.802 -59.5414 37.9545 40 52 46
1.74494 -57.6539 36.7759 41 52 45
1.74501 -57.6539 36.8005 41 51 45
1.74507 -57.6539 36.8251 41 51 44
1.74513 -57.6539 36.8497 40 50 43
1.80233 -59.5414 38.0816 40 50 42
1.8024 -59.5414 38.107 40 49 42
1.80246 -59.5414 38.1324 39 48 41
1.80253 -59.5414 38.1578 39 47 40
1.8026 -59.5414 38.1832 38 47 40
1.80266 -59.5414 38.2086 37 45 39
1.77629 -58.6684 37.6734 36 44 38
1.77636 -58.6684 37.6985 35 43 37
1.72581 -56.9969 36.6488 33 42 36
1.72588 -56.9969 36.6731 32 40 36
1.72594 -56.9969 36.6974 31 39 35
1.726 -56.9969 36.7217 30 38 34
1.77668 -58.6684 37.8237 29 37 34
1.77675 -58.6684 37.8487 28 36 33
1.80864 -59.7191 38.5521 27 35 33
1.8087 -59.7191 38.5776 26 34 32
1.80877 -59.7191 38.6031 25 34 32
1.80883 -59.7191 38.6285 25 33 32
1.8089 -59.7191 38.654 24 33 31
1.80897 -59.7191 38.6795 24 33 31
1.89383 -62.5185 40.5193 24 33 31
1.8939 -62.5185 40.546 24 33 31
1.99365 -65.8089 42.7081 24 33 31
1.99372 -65.8089 42.7362 24 33 31
2.06865 -68.2796 44.3697 24 33 31
2.06872 -68.2796 44.3989 25 33 30
2.05582 -67.8166 44.532 23 28 23
2.0559 -67.8166 44.561 23 28 23
1.8051 -59.5414 39.1489 22 27 22
1.80516 -59.5414 39.1743 22 26 22
1.80523 -59.5414 39.1997 21 26 22
1.80529 -59.5414 39.2251 21 25 21
1.80536 -59.5414 39.2506 20 25 21
1.80542 -59.5414 39.276 20 25 21
1.80549 -59.5414 39.3014 20 24 20
1.80556 -59.5414 39.3268 19 24 20
1.80562 -59.5414 39.3522 19 24 20
1.80569 -59.5414 39.3776 19 24 20
1.80575 -59.5414 39.403 19 23 20
1.80582 -59.5414 39.4285 19 23 20
1.80589 -59.5414 39.4539 18 23 20
1.80595 -59.5414 39.4793 18 23 20
1.80602 -59.5414 39.5047 18 23 20
1.80608 -59.5414 39.5301 18 23 20
1.80615 -59.5414 39.5555 18 23 20
1.80621 -59.5414 39.5809 18 23 20
1.80628 -59.5414 39.6063 18 23 20
1.80635 -59.5414 39.6318 18 24 21
1.80641 -59.5414 39.6572 19 24 21
1.80648 -59.5414 39.6826 19 25 21
1.80654 -59.5414 39.708 19 25 22
1.80661 -59.5414 39.7334 20 26 22
1.80667 -59.5414 39.7588 20 26 23
1.80674 -59.5414 39.7842 21 27 23
1.80681 -59.5414 39.8096 21 28 24
1.80687 -59.5414 39.8351 21 28 24
1.80694 -59.5414 39.8605 22 28 24
1.807 -59.5414 39.8859 22 29 25
1.80707 -59.5414 39.9113 22 29 25
1.80714 -59.5414 39.9367 23 29 25
1.8072 -59.5414 39.9621 23 30 25
1.80727 -59.5414 39.9875 23 30 25
1.78083 -58.6684 39.4263 23 30 25
1.7809 -58.6684 39.4513 23 30 25
1.80746 -59.5414 40.0638 23 30 25
1.80753 -59.5414 40.0892 23 30 25
1.8076 -59.5414 40.1146 23 30 25
1.80766 -59.5414 40.14 23 30 25
1.80773 -59.5414 40.1654 23 30 25
1.80779 -59.5414 40.1908 23 29 25
1.80786 -59.5414 40.2163 23 29 25
1.80792 -59.5414 40.2417 22 29 24
1.80799 -59.5414 40.2671 22 28 24
1.80806 -59.5414 40.2925 22 28 23
1.80812 -59.5414 40.3179 21 27 23
1.80819 -59.5414 40.3433 21 27 23
1.78174 -58.6684 39.7768 20 26 22
1.7818 -58.6684 39.8019 20 26 22
1.80839 -59.5414 40.4196 20 26 22
1.80845 -59.5414 40.445 20 26 22
1.80852 -59.5414 40.4704 20 26 22
1.80858 -59.5414 40.4958 20 26 22
1.80865 -59.5414 40.5212 20 26 22
1.80871 -59.5414 40.5466 20 27 23
1.78226 -58.6684 39.9771 20 27 23
1.78232 -58.6684 40.0022 20 27 23
1.78239 -58.6684 40.0272 21 28 24
1.78245 -58.6684 40.0523 21 28 24
1.78252 -58.6684 40.0773 21 29 24
1.78258 -58.6684 40.1024 22 29 25
1.80917 -59.5414 40.7245 22 30 25
1.80924 -59.5414 40.7499 22 31 26
1.80931 -59.5414 40.7754 23 32 26
1.80937 -59.5414 40.8008 23 32 27
1.80944 -59.5414 40.8262 24 33 27
1.8095 -59.5414 40.8516 24 34 28
1.72732 -56.835 39.019 25 34 28
1.72738 -56.835 39.0432 25 35 29
1.72744 -56.835 39.0675 26 36 29
1.7275 -56.835 39.0917 26 36 30
1.72757 -56.835 39.116 27 37 31
1.72763 -56.835 39.1402 28 38 31
1.72769 -56.835 39.1645 28 38 32
1.72776 -56.835 39.1888 29 39 32
1.72782 -56.835 39.213 29 40 33
1.72788 -56.835 39.2373 30 40 33
1.72794 -56.835 39.2615 30 41 33
1.72801 -56.835 39.2858 30 41 34
1.72807 -56.835 39.3101 31 41 34
1.72813 -56.835 39.3343 31 42 34
1.7282 -56.835 39.3586 31 42 34
1.72826 -56.835 39.3828 31 42 34
1.73325 -56.9969 39.5194 31 42 34
1.73331 -56.9969 39.5437 31 41 34
1.7842 -58.6684 40.7284 31 41 34
1.78427 -58.6684 40.7534 30 40 33
1.78433 -58.6684 40.7784 30 40 33
1.7844 -58.6684 40.8035 30 39 32
1.81102 -59.5414 41.4361 29 38 32
1.81108 -59.5414 41.4615 29 38 31
1.81115 -59.5414 41.4869 28 37 31
1.81121 -59.5414 41.5123 28 37 30
1.81128 -59.5414 41.5377 28 37 30
1.81135 -59.5414 41.5632 27 36 30
1.81141 -59.5414 41.5886 27 36 29
1.81148 -59.5414 41.614 27 35 29
1.81154 -59.5414 41.6394 27 35 29
1.81161 -59.5414 41.6648 26 35 28
1.81167 -59.5414 41.6902 26 35 28
1.81174 -59.5414 41.7156 26 35 28
1.81181 -59.5414 41.7411 26 35 28
1.81187 -59.5414 41.7665 26 35 28
1.97026 -64.744 45.4436 27 35 28
1.97033 -64.744 45.4712 27 35 28
2.05575 -67.3521 38.827 21 28 23
2.05582 -67.3521 38.8558 22 28 24
2.24486 -73.5425 42.4585 22 29 24
2.24494 -73.5425 42.4899 23 30 25
2.24502 -73.5425 42.5213 24 31 25
2.2451 -73.5425 42.5527 24 31 26
2.24518 -73.5425 42.5841 25 32 26
2.24526 -73.5425 42.6155 25 33 27
2.24534 -73.5425 42.6468 26 33 27
2.24543 -73.5425 42.6782 26 34 27
2.15823 -70.684 41.0495 27 34 27
2.1583 -70.684 41.0797 27 34 28
2.12091 -69.4568 40.3962 27 35 28
2.12099 -69.4568 40.4258 27 35 28
2.21473 -72.4767 42.7713 21 28 26
2.21481 -72.4767 42.8022 20 27 25
2.03621 -66.457 41.3181 23 26 22
2.03629 -66.457 41.3465 22 25 21
2.01626 -65.8012 40.9665 22 25 20
2.01634 -65.8012 40.9946 21 24 20
2.01641 -65.8012 41.0227 20 23 19
2.01648 -65.8012 41.0508 20 23 19
2.01656 -65.8012 41.0789 19 22 18
2.01663 -65.8012 41.107 18 21 18
1.91587 -62.5111 39.0783 18 21 18
1.91593 -62.5111 39.105 17 21 18
1.916 -62.5111 39.1317 17 21 18
1.91607 -62.5111 39.1584 17 21 19
1.91614 -62.5111 39.185 17 21 19
1.91621 -62.5111 39.2117 17 22 20
1.91628 -62.5111 39.2384 17 23 21
1.91635 -62.5111 39.2651 17 23 22
1.91642 -62.5111 39.2918 18 24 24
1.91649 -62.5111 39.3185 18 26 25
1.91656 -62.5111 39.3451 19 27 26
1.91663 -62.5111 39.3718 20 28 28
1.91669 -62.5111 39.3985 20 29 29
1.91676 -62.5111 39.4252 21 31 31
1.91683 -62.5111 39.4519 22 33 32
1.9169 -62.5111 39.4786 24 34 34
1.91697 -62.5111 39.5053 25 36 36
1.91704 -62.5111 39.5319 27 38 37
1.8534 -60.4337 38.244 28 40 39
1.85347 -60.4337 38.2698 30 42 41
1.82595 -59.5344 37.7257 31 44 42
1.82602 -59.5344 37.7511 33 46 43
1.82608 -59.5344 37.7765 34 48 45
1.82615 -59.5344 37.8019 36 49 46
1.82621 -59.5344 37.8274 37 50 46
1.82628 -59.5344 37.8528 38 52 47
1.82634 -59.5344 37.8782 39 52 47
1.82641 -59.5344 37.9036 40 53 47
1.82648 -59.5344 37.929 41 53 47
1.82654 -59.5344 37.9544 41 53 46
1.74855 -56.9902 36.3568 41 53 46
1.74861 -56.9902 36.3811 41 52 45
1.74867 -56.9902 36.4054 41 52 44
1.74874 -56.9902 36.4297 41 51 44
1.82687 -59.5344 38.0815 41 50 43
1.82694 -59.5344 38.1069 40 49 42
1.827 -59.5344 38.1323 39 48 41
1.82707 -59.5344 38.1577 39 48 41
1.82713 -59.5344 38.1831 38 47 40
1.8272 -59.5344 38.2086 37 45 39
1.82184 -59.3577 38.1205 36 44 38
1.82191 -59.3577 38.1459 35 43 37
1.76947 -57.6471 37.0712 33 41 36
1.76953 -57.6471 37.0958 32 40 36
1.7696 -57.6471 37.1204 31 39 35
1.76966 -57.6471 37.145 30 38 34
1.82224 -59.3577 38.2725 28 37 34
1.8223 -59.3577 38.2979 27 36 33
1.8554 -60.4337 39.0179 27 35 33
1.85547 -60.4337 39.0437 26 34 32
1.85554 -60.4337 39.0695 25 34 32
1.8556 -60.4337 39.0953 25 33 32
1.85567 -60.4337 39.1211 24 33 31
1.85574 -60.4337 39.1469 24 33 31
1.9196 -62.5111 40.5192 24 33 31
1.91967 -62.5111 40.5459 24 33 31
2.02077 -65.8012 42.708 24 33 31
2.02085 -65.8012 42.7361 24 33 31
2.12581 -69.2165 44.9838 24 33 31
2.12589 -69.2165 45.0133 25 33 30
1.82963 -59.5344 39.1488 22 27 23
1.8297 -59.5344 39.1743 22 27 22
1.82977 -59.5344 39.1997 21 26 22
1.82983 -59.5344 39.2251 21 26 21
1.8299 -59.5344 39.2505 21 25 21
1.82996 -59.5344 39.2759 20 25 21
1.83003 -59.5344 39.3013 20 24 20
1.83009 -59.5344 39.3267 19 24 20
1.83016 -59.5344 39.3521 19 24 20
1.83023 -59.5344 39.3776 19 24 20
1.83029 -59.5344 39.403 19 23 20
1.83036 -59.5344 39.4284 19 23 20
1.83042 -59.5344 39.4538 18 23 20
1.83049 -59.5344 39.4792 18 23 20
1.83056 -59.5344 39.5046 18 23 20
1.83062 -59.5344 39.53 18 23 20
1.83069 -59.5344 39.5555 18 23 20
1.83075 -59.5344 39.5809 18 23 20
1.83082 -59.5344 39.6063 18 23 20
1.83088 -59.5344 39.6317 18 23 20
1.83095 -59.5344 39.6571 18 23 20
1.83102 -59.5344 39.6825 19 24 21
1.83108 -59.5344 39.7079 19 25 21
1.83115 -59.5344 39.7333 19 25 22
1.83121 -59.5344 39.7588 20 26 22
1.83128 -59.5344 39.7842 20 26 23
1.83135 -59.5344 39.8096 20 27 23
1.83141 -59.5344 39.835 21 27 23
1.83148 -59.5344 39.8604 21 27 23
1.83154 -59.5344 39.8858 21 28 24
1.83161 -59.5344 39.9112 21 28 24
1.83167 -59.5344 39.9367 22 28 24
1.83174 -59.5344 39.9621 22 28 24
1.83181 -59.5344 39.9875 22 29 24
1.82644 -59.3577 39.8942 22 29 24
1.8265 -59.3577 39.9195 22 29 24
1.832 -59.5344 40.0637 22 29 24
1.83207 -59.5344 40.0891 22 29 24
1.83213 -59.5344 40.1145 22 29 24
1.8322 -59.5344 40.14 22 29 24
1.83227 -59.5344 40.1654 22 29 24
1.83233 -59.5344 40.1908 22 28 24
1.8324 -59.5344 40.2162 22 28 24
1.83246 -59.5344 40.2416 22 28 23
1.83253 -59.5344 40.267 21 27 23
1.8326 -59.5344 40.2924 21 27 23
1.83266 -59.5344 40.3179 20 27 22
1.83273 -59.5344 40.3433 20 26 22
1.82735 -59.3577 40.2489 20 26 22
1.82742 -59.3577 40.2742 20 26 22
1.83292 -59.5344 40.4195 19 26 22
1.83299 -59.5344 40.4449 19 26 22
1.83306 -59.5344 40.4703 19 26 22
1.83312 -59.5344 40.4957 19 26 22
1.83319 -59.5344 40.5212 20 26 22
1.83325 -59.5344 40.5466 20 26 22
1.82788 -59.3577 40.4516 20 27 23
1.82794 -59.3577 40.4769 20 27 23
1.82801 -59.3577 40.5023 20 28 23
1.82808 -59.3577 40.5276 21 28 24
1.82814 -59.3577 40.5529 21 29 24
1.82821 -59.3577 40.5783 21 29 25
1.83371 -59.5344 40.7245 22 30 25
1.83378 -59.5344 40.7499 22 31 26
1.83385 -59.5344 40.7753 23 31 26
1.83391 -59.5344 40.8007 23 32 27
1.83398 -59.5344 40.8261 24 33 27
1.83404 -59.5344 40.8515 24 33 28
1.75074 -56.8283 39.0189 25 34 28
1.7508 -56.8283 39.0432 25 35 29
1.75087 -56.8283 39.0674 26 36 29
1.75093 -56.8283 39.0917 26 36 30
1.75099 -56.8283 39.1159 27 37 31
1.75105 -56.8283 39.1402 28 38 31
1.75112 -56.8283 39.1644 28 39 32
1.75118 -56.8283 39.1887 29 39 32
1.75124 -56.8283 39.213 29 40 33
1.75131 -56.8283 39.2372 30 40 33
1.75137 -56.8283 39.2615 30 41 33
1.75143 -56.8283 39.2857 31 41 34
1.75149 -56.8283 39.31 31 42 34
1.75156 -56.8283 39.3343 31 42 34
1.75162 -56.8283 39.3585 31 42 34
1.75168 -56.8283 39.3828 32 42 34
1.77699 -57.6471 39.9749 32 42 34
1.77705 -57.6471 39.9995 31 42 34
1.82985 -59.3577 41.2117 31 41 34
1.82991 -59.3577 41.2371 31 40 33
1.82998 -59.3577 41.2624 30 40 33
1.83004 -59.3577 41.2877 30 39 32
1.83556 -59.5344 41.436 29 39 32
1.83562 -59.5344 41.4614 29 38 31
1.83569 -59.5344 41.4869 29 38 31
1.83575 -59.5344 41.5123 28 37 31
1.83582 -59.5344 41.5377 28 37 30
1.83588 -59.5344 41.5631 28 37 30
1.83595 -59.5344 41.5885 27 36 30
1.83602 -59.5344 41.6139 27 36 29
1.83608 -59.5344 41.6393 27 36 29
1.83615 -59.5344 41.6648 27 36 29
1.83621 -59.5344 41.6902 27 36 29
1.83628 -59.5344 41.7156 27 36 28
1.83635 -59.5344 41.741 27 36 28
1.83641 -59.5344 41.7664 27 36 28
2.02314 -65.5854 46.0395 27 36 28
2.02321 -65.5854 46.0675 27 36 29
2.23106 -72.7317 34.5432 85 94 79
2.23114 -72.7317 34.5742 84 94 79
2.07652 -67.1182 38.6967 22 29 24
2.07659 -67.1182 38.7253 23 30 24
2.27517 -73.5339 42.4584 23 30 25
2.27525 -73.5339 42.4898 24 31 26
2.27533 -73.5339 42.5212 25 32 26
2.27541 -73.5339 42.5526 25 33 26
2.27549 -73.5339 42.584 26 33 27
2.27558 -73.5339 42.6154 26 34 27
2.27566 -73.5339 42.6468 27 34 28
2.27574 -73.5339 42.6782 27 35 28
2.23474 -72.2065 41.9386 27 35 28
2.23482 -72.2065 41.9695 28 35 28
2.15703 -69.6906 40.5369 28 35 28
2.15711 -69.6906 40.5666 28 36 29
2.04324 -65.7935 40.9103 24 27 22
2.04331 -65.7935 40.9384 23 26 21
2.04339 -65.7935 40.9665 22 25 21
2.04346 -65.7935 40.9946 21 24 20
2.04353 -65.7935 41.0226 20 23 20
2.0436 -65.7935 41.0507 20 23 19
2.03698 -65.5777 40.9441 19 22 19
2.03705 -65.5777 40.9721 18 21 18
1.94163 -62.5038 39.0782 18 21 18
1.9417 -62.5038 39.1049 17 21 18
1.94177 -62.5038 39.1316 17 21 18
1.94184 -62.5038 39.1583 17 21 19
1.94191 -62.5038 39.185 17 21 19
1.94198 -62.5038 39.2117 17 22 20
1.94205 -62.5038 39.2383 17 22 21
1.94212 -62.5038 39.265 17 23 22
1.94218 -62.5038 39.2917 18 24 23
1.94225 -62.5038 39.3184 18 25 25
1.94232 -62.5038 39.3451 19 27 26
1.94239 -62.5038 39.3718 20 28 28
1.94246 -62.5038 39.3985 20 30 29
1.94253 -62.5038 39.4251 21 31 31
1.9426 -62.5038 39.4518 23 33 33
1.94267 -62.5038 39.4785 24 35 34
1.94274 -62.5038 39.5052 26 37 36
1.94281 -62.5038 39.5319 27 39 38
1.91298 -61.5422 38.95 29 41 40
1.91305 -61.5422 38.9762 31 43 41
1.85049 -59.5274 37.7256 32 45 43
1.85055 -59.5274 37.7511 34 47 44
1.85062 -59.5274 37.7765 35 49 45
1.85069 -59.5274 37.8019 37 50 46
1.85075 -59.5274 37.8273 38 51 47
1.85082 -59.5274 37.8527 39 52 48
1.85088 -59.5274 37.8781 40 53 48
1.85095 -59.5274 37.9035 41 54 48
1.85102 -59.5274 37.9289 42 54 48
1.85108 -59.5274 37.9544 42 54 47
1.767 -56.8216 36.2534 42 53 46
1.76707 -56.8216 36.2777 42 53 46
1.77216 -56.9835 36.4054 42 52 45
1.77223 -56.9835 36.4297 41 51 44
1.85141 -59.5274 38.0814 41 50 43
1.85148 -59.5274 38.1068 40 50 42
1.85154 -59.5274 38.1323 40 49 41
1.85161 -59.5274 38.1577 39 48 41
1.85167 -59.5274 38.1831 38 47 40
1.85174 -59.5274 38.2085 37 45 39
1.8518 -59.5274 38.2339 36 44 38
1.85187 -59.5274 38.2593 34 43 37
1.82478 -58.6546 37.7234 33 41 36
1.82485 -58.6546 37.7484 32 40 36
1.82491 -58.6546 37.7735 30 39 35
1.82498 -58.6546 37.7985 29 38 34
1.85773 -59.7051 38.501 28 37 34
1.85779 -59.7051 38.5265 27 36 33
1.91503 -61.5422 39.7382 26 35 33
1.91509 -61.5422 39.7644 26 34 32
1.91516 -61.5422 39.7907 25 34 32
1.91523 -61.5422 39.817 25 33 32
1.9153 -61.5422 39.8433 24 33 31
1.91537 -61.5422 39.8695 24 33 31
1.94536 -62.5038 40.5192 24 33 31
1.94543 -62.5038 40.5459 24 33 31
2.04118 -65.5777 42.5679 24 33 31
2.04125 -65.5777 42.5959 24 33 31
2.16182 -69.4486 45.1399 24 33 31
2.1619 -69.4486 45.1695 25 33 30
1.85417 -59.5274 39.1488 23 28 23
1.85424 -59.5274 39.1742 22 27 22
1.8543 -59.5274 39.1996 22 27 22
1.85437 -59.5274 39.225 21 26 21
1.85444 -59.5274 39.2504 21 25 21
1.8545 -59.5274 39.2758 20 25 21
1.85457 -59.5274 39.3013 20 25 21
1.85463 -59.5274 39.3267 20 24 20
1.8547 -59.5274 39.3521 19 24 20
1.85477 -59.5274 39.3775 19 24 20
1.85483 -59.5274 39.4029 19 23 20
1.8549 -59.5274 39.4283 18 23 20
1.85496 -59.5274 39.4537 18 23 20
1.85503 -59.5274 39.4792 18 23 20
1.85509 -59.5274 39.5046 18 22 19
1.85516 -59.5274 39.53 18 22 19
1.85523 -59.5274 39.5554 17 22 19
1.85529 -59.5274 39.5808 17 22 19
1.85536 -59.5274 39.6062 17 22 20
1.85542 -59.5274 39.6316 18 23 20
1.85549 -59.5274 39.657 18 23 20
1.85555 -59.5274 39.6825 18 23 20
1.85562 -59.5274 39.7079 18 24 21
1.85569 -59.5274 39.7333 19 24 21
1.85575 -59.5274 39.7587 19 25 21
1.85582 -59.5274 39.7841 19 25 22
1.85588 -59.5274 39.8095 20 26 22
1.85595 -59.5274 39.8349 20 26 22
1.85602 -59.5274 39.8603 20 26 23
1.85608 -59.5274 39.8858 20 27 23
1.85615 -59.5274 39.9112 21 27 23
1.85621 -59.5274 39.9366 21 27 23
1.85628 -59.5274 39.962 21 27 23
1.85634 -59.5274 39.9874 21 28 23
1.85641 -59.5274 40.0128 21 28 23
1.85648 -59.5274 40.0382 21 28 23
1.85654 -59.5274 40.0637 21 28 23
1.85661 -59.5274 40.0891 22 28 23
1.85667 -59.5274 40.1145 22 28 23
1.85674 -59.5274 40.1399 21 28 23
1.85681 -59.5274 40.1653 21 28 23
1.85687 -59.5274 40.1907 21 28 23
1.85694 -59.5274 40.2161 21 27 23
1.857 -59.5274 40.2415 21 27 23
1.85707 -59.5274 40.267 21 27 23
1.85713 -59.5274 40.2924 20 26 22
1.8572 -59.5274 40.3178 20 26 22
1.85727 -59.5274 40.3432 20 26 22
1.85733 -59.5274 40.3686 19 25 22
1.8574 -59.5274 40.394 19 25 21
1.85746 -59.5274 40.4194 19 25 22
1.85753 -59.5274 40.4449 19 25 22
1.85759 -59.5274 40.4703 19 26 22
1.85766 -59.5274 40.4957 19 26 22
1.85773 -59.5274 40.5211 20 26 22
1.85779 -59.5274 40.5465 20 26 22
1.85786 -59.5274 40.5719 20 27 23
1.85792 -59.5274 40.5973 20 27 23
1.85799 -59.5274 40.6227 20 28 23
1.85806 -59.5274 40.6482 21 28 24
1.85812 -59.5274 40.6736 21 29 24
1.85819 -59.5274 40.699 21 29 25
1.85825 -59.5274 40.7244 22 30 25
1.85832 -59.5274 40.7498 22 31 26
1.85287 -59.3508 40.6542 23 31 26
1.85294 -59.3508 40.6796 23 32 27
1.853 -59.3508 40.7049 24 33 27
1.85307 -59.3508 40.7302 24 33 28
1.77416 -56.8216 39.0188 25 34 28
1.77423 -56.8216 39.0431 25 35 29
1.77429 -56.8216 39.0674 26 36 29
1.77435 -56.8216 39.0916 27 36 30
1.77441 -56.8216 39.1159 27 37 31
1.77448 -56.8216 39.1401 28 38 31
1.7796 -56.9835 39.276 28 39 32
1.77966 -56.9835 39.3003 29 39 32
1.77972 -56.9835 39.3246 30 40 33
1.77978 -56.9835 39.3489 30 40 33
1.77985 -56.9835 39.3733 31 41 33
1.77991 -56.9835 39.3976 31 41 34
1.77997 -56.9835 39.4219 31 42 34
1.78004 -56.9835 39.4463 32 42 34
1.7801 -56.9835 39.4706 32 42 34
1.78016 -56.9835 39.4949 32 42 34
1.83243 -58.6546 40.6782 32 42 34
1.8325 -58.6546 40.7032 32 42 34
1.85983 -59.5274 41.3343 31 41 34
1.8599 -59.5274 41.3597 31 41 33
1.85996 -59.5274 41.3851 31 40 33
1.86003 -59.5274 41.4106 30 39 32
1.86009 -59.5274 41.436 30 39 32
1.86016 -59.5274 41.4614 29 38 32
1.86023 -59.5274 41.4868 29 38 31
1.86029 -59.5274 41.5122 29 38 31
1.86036 -59.5274 41.5376 28 37 31
1.86042 -59.5274 41.563 28 37 30
1.86049 -59.5274 41.5884 28 37 30
1.86056 -59.5274 41.6139 28 37 30
1.86062 -59.5274 41.6393 27 36 29
1.86069 -59.5274 41.6647 27 36 29
1.86075 -59.5274 41.6901 27 36 29
1.86082 -59.5274 41.7155 27 36 29
1.86644 -59.7051 41.8655 27 36 29
1.86651 -59.7051 41.891 28 36 29
2.05691 -65.7935 46.1909 28 37 29
2.05698 -65.7935 46.219 28 37 29
1.85517 -59.1682 34.1171 23 30 25
1.85523 -59.1682 34.1424 24 31 25
2.30548 -73.5252 42.4583 24 32 26
2.30556 -73.5252 42.4897 25 32 26
2.30564 -73.5252 42.5211 26 33 27
2.30573 -73.5252 42.5525 26 34 27
2.30581 -73.5252 42.5839 27 34 28
2.30589 -73.5252 42.6153 27 35 28
2.30597 -73.5252 42.6467 28 35 28
2.30605 -73.5252 42.6781 28 36 29
2.29769 -73.2559 42.553 28 36 29
2.29777 -73.2559 42.5843 28 36 29
2.21665 -70.6674 41.1097 28 36 29
2.21673 -70.6674 41.1399 28 36 29
2.23967 -71.1703 44.198 26 29 24
2.23974 -71.1703 44.2284 25 28 23
2.07036 -65.7857 40.9102 24 27 22
2.07044 -65.7857 40.9383 23 26 22
2.07051 -65.7857 40.9664 22 26 21
2.07058 -65.7857 40.9945 22 25 20
2.07065 -65.7857 41.0226 21 24 20
2.07073 -65.7857 41.0507 20 23 19
2.03729 -64.7212 40.414 19 22 19
2.03736 -64.7212 40.4417 18 22 18
1.9674 -62.4964 39.0782 18 21 18
1.96747 -62.4964 39.1049 17 21 18
1.96754 -62.4964 39.1315 17 21 18
1.9676 -62.4964 39.1582 17 21 19
1.96767 -62.4964 39.1849 17 21 19
1.96774 -62.4964 39.2116 17 22 20
1.96781 -62.4964 39.2383 17 22 21
1.96788 -62.4964 39.265 17 23 22
1.96795 -62.4964 39.2916 17 24 23
1.96802 -62.4964 39.3183 18 25 25
1.96809 -62.4964 39.345 19 27 26
1.96816 -62.4964 39.3717 20 28 28
1.96823 -62.4964 39.3984 21 30 29
1.9683 -62.4964 39.4251 22 32 31
1.96836 -62.4964 39.4518 23 33 33
1.96843 -62.4964 39.4784 24 35 35
1.9685 -62.4964 39.5051 26 38 37
1.96857 -62.4964 39.5318 28 40 38
1.96251 -62.3017 39.4353 29 42 40
1.96258 -62.3017 39.4619 31 44 42
1.87503 -59.5204 37.7256 33 46 43
1.87509 -59.5204 37.751 34 48 45
1.87516 -59.5204 37.7764 36 50 46
1.87522 -59.5204 37.8018 38 51 47
1.87529 -59.5204 37.8272 39 52 48
1.87536 -59.5204 37.8526 40 53 48
1.87542 -59.5204 37.8781 41 54 49
1.87549 -59.5204 37.9035 42 54 48
1.87555 -59.5204 37.9289 42 54 48
1.87562 -59.5204 37.9543 42 54 48
1.79043 -56.8149 36.2534 43 54 47
1.79049 -56.8149 36.2776 42 53 46
1.81635 -57.6336 36.825 42 53 45
1.81642 -57.6336 36.8496 42 52 44
1.87595 -59.5204 38.0814 41 51 43
1.87601 -59.5204 38.1068 40 50 42
1.87608 -59.5204 38.1322 40 49 42
1.87615 -59.5204 38.1576 39 48 41
1.87621 -59.5204 38.183 38 47 40
1.87628 -59.5204 38.2084 37 45 39
1.87634 -59.5204 38.2338 36 44 38
1.87641 -59.5204 38.2593 34 42 37
1.87091 -59.3438 38.1711 33 41 36
1.87097 -59.3438 38.1964 31 40 35
1.87104 -59.3438 38.2217 30 38 35
1.8711 -59.3438 38.2471 29 37 34
1.90509 -60.4195 38.9662 28 36 34
1.90515 -60.4195 38.992 27 36 33
1.96457 -62.3017 40.2333 26 35 33
1.96464 -62.3017 40.2599 26 34 32
1.96471 -62.3017 40.2865 25 34 32
1.96478 -62.3017 40.3131 25 33 32
1.96485 -62.3017 40.3397 24 33 32
1.96492 -62.3017 40.3663 24 33 31
1.97113 -62.4964 40.5191 24 33 31
1.9712 -62.4964 40.5458 24 33 31
2.04144 -64.7212 42.0168 24 33 31
2.04151 -64.7212 42.0444 24 33 31
2.19045 -69.4405 45.1398 25 33 31
2.19053 -69.4405 45.1695 25 33 30
1.87871 -59.5204 39.1487 23 28 23
1.87878 -59.5204 39.1741 23 28 23
1.87884 -59.5204 39.1995 22 27 22
1.87891 -59.5204 39.225 22 26 22
1.87898 -59.5204 39.2504 21 26 21
1.87904 -59.5204 39.2758 21 25 21
1.87911 -59.5204 39.3012 20 25 21
1.87917 -59.5204 39.3266 20 24 20
1.87924 -59.5204 39.352 19 24 20
1.8793 -59.5204 39.3774 19 24 20
1.87937 -59.5204 39.4028 19 23 20
1.87944 -59.5204 39.4283 18 23 20
1.8795 -59.5204 39.4537 18 23 19
1.87957 -59.5204 39.4791 18 22 19
1.87963 -59.5204 39.5045 18 22 19
1.8797 -59.5204 39.5299 17 22 19
1.87976 -59.5204 39.5553 17 22 19
1.87983 -59.5204 39.5807 17 22 19
1.8799 -59.5204 39.6062 17 22 19
1.87996 -59.5204 39.6316 17 22 19
1.88003 -59.5204 39.657 17 23 20
1.88009 -59.5204 39.6824 18 23 20
1.88016 -59.5204 39.7078 18 23 20
1.88023 -59.5204 39.7332 18 24 21
1.88029 -59.5204 39.7586 19 24 21
1.88036 -59.5204 39.784 19 25 21
1.88042 -59.5204 39.8095 19 25 21
1.88049 -59.5204 39.8349 19 25 22
1.88055 -59.5204 39.8603 20 26 22
1.88062 -59.5204 39.8857 20 26 22
1.88069 -59.5204 39.9111 20 26 22
1.88075 -59.5204 39.9365 20 27 22
1.88082 -59.5204 39.9619 21 27 23
1.88088 -59.5204 39.9874 21 27 23
1.88095 -59.5204 40.0128 21 27 23
1.88101 -59.5204 40.0382 21 27 23
1.88108 -59.5204 40.0636 21 27 23
1.88115 -59.5204 40.089 21 27 23
1.88121 -59.5204 40.1144 21 27 23
1.88128 -59.5204 40.1398 21 27 23
1.88134 -59.5204 40.1652 21 27 23
1.88141 -59.5204 40.1907 21 27 23
1.88148 -59.5204 40.2161 21 27 23
1.88154 -59.5204 40.2415 21 27 22
1.88161 -59.5204 40.2669 20 26 22
1.88167 -59.5204 40.2923 20 26 22
1.88174 -59.5204 40.3177 20 26 22
1.8818 -59.5204 40.3431 20 26 22
1.88187 -59.5204 40.3686 19 25 22
1.88194 -59.5204 40.394 19 25 21
1.882 -59.5204 40.4194 19 25 22
1.88207 -59.5204 40.4448 19 26 22
1.88213 -59.5204 40.4702 19 26 22
1.8822 -59.5204 40.4956 20 26 22
1.88227 -59.5204 40.521 20 26 22
1.88233 -59.5204 40.5464 20 27 22
1.8824 -59.5204 40.5719 20 27 23
1.88246 -59.5204 40.5973 20 27 23
1.88253 -59.5204 40.6227 20 28 23
1.88259 -59.5204 40.6481 21 28 24
1.88266 -59.5204 40.6735 21 29 24
1.88273 -59.5204 40.6989 22 29 25
1.88279 -59.5204 40.7243 22 30 25
1.88286 -59.5204 40.7497 23 31 26
1.85531 -58.6477 40.1773 23 32 26
1.85538 -58.6477 40.2023 24 32 27
1.85544 -58.6477 40.2274 24 33 27
1.85551 -58.6477 40.2524 25 34 28
1.79759 -56.8149 39.0188 25 34 28
1.79765 -56.8149 39.043 26 35 29
1.79771 -56.8149 39.0673 26 36 30
1.79778 -56.8149 39.0916 27 37 30
1.79784 -56.8149 39.1158 28 37 31
1.7979 -56.8149 39.1401 28 38 31
1.82387 -57.6336 39.7287 29 39 32
1.82393 -57.6336 39.7533 29 40 32
1.824 -57.6336 39.7779 30 40 33
1.82406 -57.6336 39.8025 30 41 33
1.82413 -57.6336 39.8271 31 41 33
1.82419 -57.6336 39.8517 31 42 34
1.82425 -57.6336 39.8763 32 42 34
1.82432 -57.6336 39.9009 32 42 34
1.82438 -57.6336 39.9255 32 42 35
1.82444 -57.6336 39.9501 32 42 35
1.87865 -59.3438 41.1609 32 42 34
1.87871 -59.3438 41.1863 32 42 34
1.88437 -59.5204 41.3343 32 42 34
1.88444 -59.5204 41.3597 31 41 33
1.8845 -59.5204 41.3851 31 40 33
1.88457 -59.5204 41.4105 30 40 33
1.88463 -59.5204 41.4359 30 39 32
1.8847 -59.5204 41.4613 30 39 32
1.88477 -59.5204 41.4867 29 38 31
1.88483 -59.5204 41.5121 29 38 31
1.8849 -59.5204 41.5376 29 38 31
1.88496 -59.5204 41.563 29 38 31
1.88503 -59.5204 41.5884 28 37 30
1.88509 -59.5204 41.6138 28 37 30
1.88516 -59.5204 41.6392 28 37 30
1.88523 -59.5204 41.6646 28 37 29
1.88529 -59.5204 41.69 28 37 29
1.88536 -59.5204 41.7155 28 37 29
1.9139 -60.4195 42.3714 28 37 29
1.91397 -60.4195 42.3972 28 37 29
2.08403 -65.7857 46.1908 28 37 29
2.08411 -65.7857 46.2189 29 38 30
2.29086 -72.7146 34.4809 84 94 79
2.29094 -72.7146 34.5119 84 93 79
2.29118 -72.7146 34.6051 82 92 77
2.29126 -72.7146 34.6361 82 91 77
2.29134 -72.7146 34.6672 81 90 76
2.29142 -72.7146 34.6982 80 90 75
2.2915 -72.7146 34.7293 79 89 74
2.29158 -72.7146 34.7604 78 88 74
2.33579 -73.5166 42.4583 25 33 27
2.33588 -73.5166 42.4896 26 33 27
2.33596 -73.5166 42.521 26 34 28
2.33604 -73.5166 42.5524 27 35 28
2.33612 -73.5166 42.5838 28 35 29
2.3362 -73.5166 42.6152 28 36 29
2.33628 -73.5166 42.6466 28 36 29
2.33636 -73.5166 42.678 29 37 29
2.33645 -73.5166 42.7094 29 37 29
2.33653 -73.5166 42.7408 29 37 30
2.29539 -72.1896 42.37 27 35 30
2.29547 -72.1896 42.4009 26 34 30
2.21603 -69.6743 41.1317 21 28 26
2.2161 -69.6743 41.1615 20 27 26
2.16868 -68.0153 42.2436 26 30 24
2.16875 -68.0153 42.2726 25 29 24
2.09748 -65.778 40.9101 24 28 23
2.09756 -65.778 40.9382 24 27 22
2.09763 -65.778 40.9663 23 26 21
2.0977 -65.778 40.9944 22 25 21
2.09778 -65.778 41.0225 21 24 20
2.09785 -65.778 41.0506 20 23 19
2.02466 -63.481 39.6442 19 22 19
2.02473 -63.481 39.6713 19 22 18
1.99316 -62.4891 39.0781 18 21 18
1.99323 -62.4891 39.1048 17 21 18
1.9933 -62.4891 39.1315 17 21 18
1.99337 -62.4891 39.1582 17 21 19
1.99344 -62.4891 39.1848 17 21 19
1.99351 -62.4891 39.2115 17 22 20
1.99358 -62.4891 39.2382 17 22 21
1.99365 -62.4891 39.2649 17 23 22
1.99372 -62.4891 39.2916 17 24 23
1.99378 -62.4891 39.3183 18 25 25
1.99385 -62.4891 39.345 19 27 26
1.99392 -62.4891 39.3716 20 28 28
1.99399 -62.4891 39.3983 21 30 30
1.99406 -62.4891 39.425 22 32 31
1.99413 -62.4891 39.4517 23 34 33
1.9942 -62.4891 39.4784 25 36 35
1.99427 -62.4891 39.5051 27 38 37
1.99434 -62.4891 39.5317 28 40 39
1.99441 -62.4891 39.5584 30 43 41
1.99448 -62.4891 39.5851 32 45 42
1.89957 -59.5134 37.7255 34 47 44
1.89963 -59.5134 37.7509 35 49 45
1.8997 -59.5134 37.7763 37 50 47
1.89976 -59.5134 37.8018 38 52 48
1.89983 -59.5134 37.8272 40 53 48
1.8999 -59.5134 37.8526 41 54 49
1.89996 -59.5134 37.878 42 55 49
1.90003 -59.5134 37.9034 42 55 49
1.90009 -59.5134 37.9288 43 55 49
1.90016 -59.5134 37.9542 43 55 48
1.81385 -56.8083 36.2533 43 54 47
1.81391 -56.8083 36.2776 43 54 46
1.87249 -58.6408 37.4728 43 53 45
1.87256 -58.6408 37.4979 42 52 44
1.89485 -59.3368 37.9683 41 51 44
1.89491 -59.3368 37.9936 41 50 43
1.90062 -59.5134 38.1321 40 49 42
1.90068 -59.5134 38.1575 39 48 41
1.90075 -59.5134 38.183 38 47 40
1.90082 -59.5134 38.2084 37 45 39
1.90088 -59.5134 38.2338 35 44 38
1.90095 -59.5134 38.2592 34 42 37
1.90101 -59.5134 38.2846 33 41 36
1.90108 -59.5134 38.31 31 40 35
1.90115 -59.5134 38.3354 30 38 35
1.90121 -59.5134 38.3608 29 37 34
1.96563 -61.5277 39.6855 28 36 34
1.9657 -61.5277 39.7118 27 36 33
1.99648 -62.4891 40.3589 26 35 33
1.99655 -62.4891 40.3856 26 34 32
1.99662 -62.4891 40.4123 25 34 32
1.99669 -62.4891 40.439 25 33 32
1.99676 -62.4891 40.4657 24 33 32
1.99682 -62.4891 40.4924 24 33 32
1.99689 -62.4891 40.519 24 33 31
1.99696 -62.4891 40.5457 24 33 31
2.02873 -63.481 41.2164 24 33 31
2.0288 -63.481 41.2435 25 33 31
2.20377 -68.9535 44.8284 25 33 31
2.20385 -68.9535 44.8579 25 33 30
2.34117 -73.2473 47.6825 25 33 30
2.34125 -73.2473 47.7138 25 33 30
1.91465 -59.8698 39.3831 24 29 23
1.91471 -59.8698 39.4086 23 28 23
1.90338 -59.5134 39.1995 23 28 22
1.90345 -59.5134 39.2249 22 27 22
1.90351 -59.5134 39.2503 22 26 22
1.90358 -59.5134 39.2757 21 26 21
1.90365 -59.5134 39.3011 20 25 21
1.90371 -59.5134 39.3265 20 25 21
1.90378 -59.5134 39.352 20 24 20
1.90384 -59.5134 39.3774 19 24 20
1.90391 -59.5134 39.4028 19 23 20
1.90397 -59.5134 39.4282 18 23 20
1.90404 -59.5134 39.4536 18 23 19
1.90411 -59.5134 39.479 18 22 19
1.90417 -59.5134 39.5044 17 22 19
1.90424 -59.5134 39.5299 17 22 19
1.9043 -59.5134 39.5553 17 22 19
1.90437 -59.5134 39.5807 17 22 19
1.89878 -59.3368 39.4886 17 22 19
1.89885 -59.3368 39.5139 17 22 19
1.89892 -59.3368 39.5392 17 22 19
1.89898 -59.3368 39.5646 17 23 20
1.89905 -59.3368 39.5899 18 23 20
1.89911 -59.3368 39.6153 18 23 20
1.90483 -59.5134 39.7586 18 24 20
1.9049 -59.5134 39.784 19 24 21
1.90496 -59.5134 39.8094 19 25 21
1.90503 -59.5134 39.8348 19 25 21
1.90509 -59.5134 39.8602 19 25 21
1.90516 -59.5134 39.8856 20 25 22
1.90522 -59.5134 39.911 20 26 22
1.90529 -59.5134 39.9365 20 26 22
1.90536 -59.5134 39.9619 20 26 22
1.90542 -59.5134 39.9873 20 26 22
1.90549 -59.5134 40.0127 20 27 22
1.90555 -59.5134 40.0381 21 27 22
1.90562 -59.5134 40.0635 21 27 22
1.90569 -59.5134 40.0889 21 27 22
1.90575 -59.5134 40.1144 21 27 22
1.90582 -59.5134 40.1398 21 27 22
1.90588 -59.5134 40.1652 21 27 22
1.90595 -59.5134 40.1906 21 27 22
1.90601 -59.5134 40.216 21 27 22
1.90608 -59.5134 40.2414 21 27 22
1.90615 -59.5134 40.2668 20 26 22
1.90621 -59.5134 40.2922 20 26 22
1.90628 -59.5134 40.3177 20 26 22
1.90634 -59.5134 40.3431 20 26 22
1.90641 -59.5134 40.3685 20 26 22
1.90647 -59.5134 40.3939 20 26 22
1.90654 -59.5134 40.4193 20 26 22
1.90661 -59.5134 40.4447 20 26 22
1.90667 -59.5134 40.4701 20 26 22
1.90674 -59.5134 40.4956 20 26 22
1.9068 -59.5134 40.521 20 27 23
1.90687 -59.5134 40.5464 20 27 23
1.90128 -59.3368 40.4514 20 27 23
1.90134 -59.3368 40.4767 21 28 23
1.90707 -59.5134 40.6226 21 28 24
1.90713 -59.5134 40.648 21 29 24
1.9072 -59.5134 40.6734 22 29 25
1.90726 -59.5134 40.6989 22 30 25
1.90167 -59.3368 40.6034 22 31 26
1.90174 -59.3368 40.6288 23 31 26
1.84699 -57.6268 39.4825 23 32 27
1.84706 -57.6268 39.5071 24 33 27
1.84712 -57.6268 39.5317 24 33 28
1.84719 -57.6268 39.5563 25 34 28
1.8262 -56.9701 39.1299 26 35 29
1.82626 -56.9701 39.1542 26 35 29
1.82632 -56.9701 39.1785 27 36 30
1.82639 -56.9701 39.2029 27 37 30
1.82645 -56.9701 39.2272 28 38 31
1.82651 -56.9701 39.2515 28 38 31
1.88014 -58.6408 40.4276 29 39 32
1.88021 -58.6408 40.4527 30 40 32
1.88027 -58.6408 40.4777 30 40 33
1.88034 -58.6408 40.5028 31 41 33
1.8804 -58.6408 40.5278 31 41 34
1.88047 -58.6408 40.5528 32 42 34
1.88053 -58.6408 40.5779 32 42 34
1.8806 -58.6408 40.6029 32 42 34
1.88066 -58.6408 40.628 32 43 35
1.88072 -58.6408 40.653 32 43 35
1.90878 -59.5134 41.2834 32 43 35
1.90884 -59.5134 41.3088 32 42 34
1.90891 -59.5134 41.3342 32 42 34
1.90898 -59.5134 41.3596 32 41 34
1.90904 -59.5134 41.385 31 41 33
1.90911 -59.5134 41.4104 31 40 33
1.90917 -59.5134 41.4358 30 39 32
1.90924 -59.5134 41.4613 30 39 32
1.9093 -59.5134 41.4867 30 39 32
1.90937 -59.5134 41.5121 29 39 31
1.90944 -59.5134 41.5375 29 38 31
1.9095 -59.5134 41.5629 29 38 31
1.90957 -59.5134 41.5883 29 38 30
1.90963 -59.5134 41.6137 28 38 30
1.9097 -59.5134 41.6391 28 37 30
1.90976 -59.5134 41.6646 28 37 30
1.90983 -59.5134 41.69 28 37 30
1.9099 -59.5134 41.7154 28 37 30
1.97461 -61.5277 43.1536 28 38 30
1.97467 -61.5277 43.1798 29 38 30
2.11116 -65.778 46.1907 29 38 30
2.11123 -65.778 46.2188 29 38 30
2.36611 -73.5079 42.4582 26 34 27
2.36619 -73.5079 42.4896 27 35 28
2.36627 -73.5079 42.521 27 35 29
2.36635 -73.5079 42.5524 28 36 29
2.36643 -73.5079 42.5837 29 37 29
2.36651 -73.5079 42.6151 29 37 30
2.3666 -73.5079 42.6465 29 38 30
2.36668 -73.5079 42.6779 30 38 30
2.36676 -73.5079 42.7093 30 38 30
2.36684 -73.5079 42.7407 30 38 30
2.38039 -73.7792 44.7574 32 39 32
2.38047 -73.7792 44.7889 33 40 33
2.383 -73.7792 45.7657 28 32 26
2.38308 -73.7792 45.7972 27 31 26
2.13853 -66.2058 41.1245 27 30 25
2.1386 -66.2058 41.1527 26 30 24
2.12461 -65.7703 40.9101 25 28 23
2.12468 -65.7703 40.9382 24 27 23
2.12475 -65.7703 40.9663 23 26 22
2.12482 -65.7703 40.9943 22 25 21
2.1249 -65.7703 41.0224 21 25 20
2.12497 -65.7703 41.0505 20 24 20
2.02512 -62.6776 39.147 20 23 19
2.02519 -62.6776 39.1738 19 22 19
2.01893 -62.4818 39.078 18 21 18
2.019 -62.4818 39.1047 17 21 18
2.01907 -62.4818 39.1314 17 21 18
2.01914 -62.4818 39.1581 17 21 19
2.01921 -62.4818 39.1848 16 21 19
2.01927 -62.4818 39.2115 16 22 20
2.01934 -62.4818 39.2381 17 22 21
2.01941 -62.4818 39.2648 17 23 22
2.01948 -62.4818 39.2915 17 24 23
2.01955 -62.4818 39.3182 18 25 25
2.01962 -62.4818 39.3449 19 27 26
2.01969 -62.4818 39.3716 20 28 28
2.01976 -62.4818 39.3983 21 30 30
2.01983 -62.4818 39.4249 22 32 31
2.0199 -62.4818 39.4516 24 34 33
2.01997 -62.4818 39.4783 25 36 35
2.02003 -62.4818 39.505 27 39 37
2.0201 -62.4818 39.5317 29 41 39
2.02017 -62.4818 39.5584 31 43 41
2.02024 -62.4818 39.585 33 45 43
1.92411 -59.5064 37.7254 34 48 44
1.92417 -59.5064 37.7509 36 49 46
1.92424 -59.5064 37.7763 38 51 47
1.9243 -59.5064 37.8017 39 53 48
1.92437 -59.5064 37.8271 40 54 49
1.92443 -59.5064 37.8525 41 55 49
1.9245 -59.5064 37.8779 42 55 49
1.92457 -59.5064 37.9033 43 56 49
1.92463 -59.5064 37.9288 43 56 49
1.9247 -59.5064 37.9542 44 55 48
1.83727 -56.8016 36.2532 44 55 48
1.83734 -56.8016 36.2775 43 54 47
1.91918 -59.3299 37.9176 43 53 46
1.91925 -59.3299 37.9429 42 52 45
1.8968 -58.6339 37.5229 42 51 44
1.89687 -58.6339 37.5479 41 50 43
1.92516 -59.5064 38.1321 40 49 42
1.92522 -59.5064 38.1575 39 48 41
1.92529 -59.5064 38.1829 38 46 40
1.92536 -59.5064 38.2083 37 45 39
1.92542 -59.5064 38.2337 35 44 38
1.92549 -59.5064 38.2591 34 42 37
1.92555 -59.5064 38.2845 32 41 36
1.92562 -59.5064 38.31 31 39 35
1.92568 -59.5064 38.3354 30 38 35
1.92575 -59.5064 38.3608 29 37 34
2.01581 -62.2871 40.1799 28 36 34
2.01588 -62.2871 40.2065 27 36 33
2.02225 -62.4818 40.3589 26 35 33
2.02231 -62.4818 40.3856 26 34 32
2.02238 -62.4818 40.4122 25 34 32
2.02245 -62.4818 40.4389 25 34 32
2.02252 -62.4818 40.4656 24 33 32
2.02259 -62.4818 40.4923 24 33 32
2.02266 -62.4818 40.519 24 33 32
2.02273 -62.4818 40.5457 24 33 31
2.02914 -62.6776 40.6995 25 33 31
2.02921 -62.6776 40.7263 25 34 31
2.17228 -67.0945 43.6249 25 34 31
2.17235 -67.0945 43.6536 25 34 30
2.33713 -72.1811 46.9939 25 34 30
2.33721 -72.1811 47.0247 26 34 30
2.34591 -72.4426 47.2879 26 33 28
2.34599 -72.4426 47.3188 26 33 28
1.98692 -61.3318 40.3495 24 29 24
1.98699 -61.3318 40.3757 24 29 23
1.92792 -59.5064 39.1994 23 28 23
1.92799 -59.5064 39.2248 22 27 22
1.92805 -59.5064 39.2502 22 27 22
1.92812 -59.5064 39.2757 21 26 21
1.92818 -59.5064 39.3011 21 25 21
1.92825 -59.5064 39.3265 20 25 21
1.92832 -59.5064 39.3519 20 24 20
1.92838 -59.5064 39.3773 19 24 20
1.92845 -59.5064 39.4027 19 24 20
1.92851 -59.5064 39.4281 19 23 20
1.92858 -59.5064 39.4535 18 23 19
1.92865 -59.5064 39.479 18 22 19
1.92871 -59.5064 39.5044 17 22 19
1.92878 -59.5064 39.5298 17 22 19
1.92884 -59.5064 39.5552 17 22 19
1.92891 -59.5064 39.5806 17 22 19
1.90069 -58.6339 39.0253 17 22 19
1.90075 -58.6339 39.0503 17 22 19
1.90082 -58.6339 39.0754 17 22 19
1.90088 -58.6339 39.1004 17 22 19
1.90095 -58.6339 39.1255 18 23 20
1.90101 -58.6339 39.1505 18 23 20
1.92937 -59.5064 39.7585 18 23 20
1.92943 -59.5064 39.7839 18 24 20
1.9295 -59.5064 39.8093 19 24 20
1.92957 -59.5064 39.8347 19 24 21
1.92963 -59.5064 39.8602 19 25 21
1.9297 -59.5064 39.8856 19 25 21
1.92976 -59.5064 39.911 19 25 21
1.92983 -59.5064 39.9364 20 26 22
1.9299 -59.5064 39.9618 20 26 22
1.92996 -59.5064 39.9872 20 26 22
1.93003 -59.5064 40.0126 20 26 22
1.93009 -59.5064 40.0381 20 26 22
1.93016 -59.5064 40.0635 20 26 22
1.93022 -59.5064 40.0889 20 27 22
1.93029 -59.5064 40.1143 21 27 22
1.93036 -59.5064 40.1397 21 27 22
1.93042 -59.5064 40.1651 21 27 22
1.93049 -59.5064 40.1905 21 27 22
1.93055 -59.5064 40.2159 21 27 22
1.93062 -59.5064 40.2414 21 27 22
1.93068 -59.5064 40.2668 20 26 22
1.93075 -59.5064 40.2922 20 26 22
1.93082 -59.5064 40.3176 20 26 22
1.93088 -59.5064 40.343 20 26 22
1.93095 -59.5064 40.3684 20 26 22
1.93101 -59.5064 40.3938 20 26 22
1.93108 -59.5064 40.4193 20 26 22
1.93115 -59.5064 40.4447 20 27 22
1.93121 -59.5064 40.4701 20 27 23
1.93128 -59.5064 40.4955 20 27 23
1.93134 -59.5064 40.5209 21 27 23
1.93141 -59.5064 40.5463 21 28 23
1.90315 -58.6339 39.9768 21 28 23
1.90322 -58.6339 40.0019 21 28 24
1.93161 -59.5064 40.6226 21 29 24
1.93167 -59.5064 40.648 22 29 24
1.93174 -59.5064 40.6734 22 30 25
1.9318 -59.5064 40.6988 22 30 25
1.90354 -58.6339 40.1271 23 31 26
1.90361 -58.6339 40.1521 23 32 27
1.84944 -56.9634 39.0325 24 32 27
1.8495 -56.9634 39.0568 24 33 28
1.84956 -56.9634 39.0812 25 34 28
1.84963 -56.9634 39.1055 25 34 28
1.87101 -57.6201 39.5809 26 35 29
1.87107 -57.6201 39.6055 26 36 29
1.87114 -57.6201 39.6301 27 37 30
1.8712 -57.6201 39.6547 28 37 31
1.87127 -57.6201 39.6793 28 38 31
1.87133 -57.6201 39.7039 29 39 32
1.92692 -59.3299 40.9074 29 39 32
1.92699 -59.3299 40.9328 30 40 32
1.92705 -59.3299 40.9581 30 41 33
1.92712 -59.3299 40.9834 31 41 33
1.92719 -59.3299 41.0088 31 42 34
1.92725 -59.3299 41.0341 32 42 34
1.92732 -59.3299 41.0594 32 42 34
1.92738 -59.3299 41.0848 32 43 35
1.92745 -59.3299 41.1101 33 43 35
1.92751 -59.3299 41.1355 33 43 35
1.93332 -59.5064 41.2833 33 43 35
1.93338 -59.5064 41.3087 33 42 34
1.93345 -59.5064 41.3341 32 42 34
1.93351 -59.5064 41.3595 32 41 34
1.93358 -59.5064 41.385 31 41 33
1.93365 -59.5064 41.4104 31 40 33
1.93371 -59.5064 41.4358 30 40 32
1.93378 -59.5064 41.4612 30 39 32
1.93384 -59.5064 41.4866 30 39 32
1.93391 -59.5064 41.512 30 39 32
1.93397 -59.5064 41.5374 29 39 31
1.93404 -59.5064 41.5628 29 38 31
1.93411 -59.5064 41.5883 29 38 31
1.93417 -59.5064 41.6137 29 38 30
1.93424 -59.5064 41.6391 29 38 30
1.9343 -59.5064 41.6645 29 38 30
1.93437 -59.5064 41.6899 29 38 30
1.93444 -59.5064 41.7153 29 38 30
2.0249 -62.2871 43.6912 29 38 30
2.02497 -62.2871 43.7178 29 38 30
2.13828 -65.7703 46.1907 29 38 30
2.13835 -65.7703 46.2188 29 39 30
2.35066 -72.6975 34.4186 83 92 78
2.35074 -72.6975 34.4497 83 92 78
2.10252 -64.4897 37.1985 25 33 27
2.10259 -64.4897 37.226 26 34 28
2.39642 -73.4993 42.4581 27 35 28
2.3965 -73.4993 42.4895 28 36 29
2.39658 -73.4993 42.5209 29 37 29
2.39666 -73.4993 42.5523 29 37 30
2.39675 -73.4993 42.5837 30 38 30
2.39683 -73.4993 42.6151 30 39 31
2.39691 -73.4993 42.6465 31 39 31
2.39699 -73.4993 42.6778 31 39 31
2.39707 -73.4993 42.7092 31 39 31
2.39715 -73.4993 42.7406 31 39 31
2.35476 -72.1726 42.3082 28 36 31
2.35484 -72.1726 42.3391 28 36 31
2.35508 -72.1726 42.4315 26 33 30
2.35516 -72.1726 42.4624 25 33 29
1.96773 -60.2163 36.4824 30 37 31
1.96779 -60.2163 36.5081 31 38 31
2.39315 -73.2301 44.4295 32 39 32
2.39323 -73.2301 44.4607 33 40 33
2.387 -72.9628 45.2646 29 33 27
2.38708 -72.9628 45.2957 28 32 26
2.15158 -65.7625 40.8538 27 31 25
2.15166 -65.7625 40.8819 26 30 25
2.15173 -65.7625 40.91 25 29 24
2.1518 -65.7625 40.9381 24 28 23
2.15187 -65.7625 40.9662 23 27 22
2.15195 -65.7625 40.9943 23 26 22
2.14496 -65.5469 40.8879 22 25 21
2.14504 -65.5469 40.9159 21 24 20
2.04456 -62.4744 39.0246 20 23 19
2.04463 -62.4744 39.0513 19 22 19
2.04469 -62.4744 39.078 18 22 19
2.04476 -62.4744 39.1047 18 21 18
2.04483 -62.4744 39.1313 17 21 19
2.0449 -62.4744 39.158 17 21 19
2.04497 -62.4744 39.1847 16 21 19
2.04504 -62.4744 39.2114 16 21 20
2.04511 -62.4744 39.2381 16 22 21
2.04518 -62.4744 39.2648 17 23 22
2.04525 -62.4744 39.2914 17 24 23
2.04532 -62.4744 39.3181 18 25 25
