ply
format ascii 1.0
comment author : Loiseau & Broux
comment object : 3d point Cloud
element vertex 1328
property float x
property float y
property float z
property uchar red
property uchar green
property uchar blue
end_header
-3.56267 -106.058 -6.49876 73 94 82
-3.56255 -106.058 -6.45429 73 94 82
-3.56244 -106.058 -6.40981 73 94 82
-3.56232 -106.058 -6.36534 73 94 82
-3.56221 -106.058 -6.32087 73 94 82
-3.56209 -106.058 -6.27639 73 94 82
-3.56198 -106.058 -6.23192 74 94 82
-3.56186 -106.058 -6.18745 74 94 83
-3.56175 -106.058 -6.14297 74 95 83
-3.56163 -106.058 -6.0985 74 95 83
-3.56152 -106.058 -6.05403 74 95 83
-3.5614 -106.058 -6.00955 74 95 83
-3.56129 -106.058 -5.96508 74 95 83
-3.56117 -106.058 -5.92061 73 94 82
-3.56106 -106.058 -5.87613 72 93 82
-3.56094 -106.058 -5.83166 71 92 81
-3.56083 -106.058 -5.78719 70 91 80
-3.56071 -106.058 -5.74272 69 90 79
-3.56059 -106.058 -5.69824 69 90 79
-3.56025 -106.058 -5.56482 66 88 76
-3.56013 -106.058 -5.52035 64 86 74
-3.48247 -104.414 -12.9234 27 37 30
-3.48235 -104.414 -12.8796 27 37 30
-3.2646 -97.8883 -12.0336 27 38 31
-3.26449 -97.8883 -11.9926 28 38 31
-3.24877 -97.4199 -11.8943 28 38 32
-3.24866 -97.4199 -11.8535 28 39 32
-3.17245 -95.1438 -11.4568 31 42 35
-3.17235 -95.1438 -11.4169 33 44 37
-3.17883 -95.5905 -8.22335 53 70 58
-3.17873 -95.5905 -8.18326 54 70 59
-3.25503 -97.8883 -8.33893 54 70 59
-3.25493 -97.8883 -8.29787 54 71 59
-3.25482 -97.8883 -8.25682 54 71 59
-3.25472 -97.8883 -8.21577 54 71 60
-3.25461 -97.8883 -8.17472 55 71 60
-3.2545 -97.8883 -8.13367 55 72 60
-3.2544 -97.8883 -8.09261 55 72 60
-3.25429 -97.8883 -8.05156 56 72 61
-3.25418 -97.8883 -8.01051 56 73 61
-3.25408 -97.8883 -7.96946 56 73 62
-3.2384 -97.4199 -7.89047 57 73 62
-3.2383 -97.4199 -7.84961 57 74 63
-3.09033 -92.9715 -7.45219 58 75 63
-3.09023 -92.9715 -7.4132 59 76 64
-3.1039 -93.398 -7.25136 65 82 71
-3.10379 -93.398 -7.2122 67 84 72
-3.08952 -92.9715 -7.14027 68 86 74
-3.08942 -92.9715 -7.10128 70 88 76
-3.08932 -92.9715 -7.06229 72 89 77
-3.08922 -92.9715 -7.0233 73 91 79
-3.08871 -92.9715 -6.82835 82 101 89
-3.08861 -92.9715 -6.78936 84 103 90
-3.08851 -92.9715 -6.75037 86 105 92
-3.08841 -92.9715 -6.71138 87 106 94
-3.23586 -97.4199 -6.90993 90 111 98
-3.23576 -97.4199 -6.86908 91 111 98
-3.25121 -97.8883 -6.86105 91 112 99
-3.2511 -97.8883 -6.82 91 112 99
-3.251 -97.8883 -6.77895 91 112 99
-3.25089 -97.8883 -6.73789 90 112 99
-3.25078 -97.8883 -6.69684 90 112 99
-3.25068 -97.8883 -6.65579 90 111 98
-3.25057 -97.8883 -6.61474 89 111 98
-3.25046 -97.8883 -6.57369 88 110 97
-3.25036 -97.8883 -6.53263 88 110 96
-3.25025 -97.8883 -6.49158 87 109 96
-3.25015 -97.8883 -6.45053 86 108 95
-3.25004 -97.8883 -6.40948 85 107 93
-3.24993 -97.8883 -6.36842 84 106 92
-3.24983 -97.8883 -6.32737 82 104 91
-3.24972 -97.8883 -6.28632 81 103 89
-3.24961 -97.8883 -6.24527 79 101 88
-3.5203 -106.046 -6.72123 77 99 86
-3.52018 -106.046 -6.67676 75 97 85
-3.52007 -106.046 -6.63229 74 96 84
-3.51995 -106.046 -6.58781 73 95 83
-3.51984 -106.046 -6.54334 73 94 82
-3.51972 -106.046 -6.49887 73 94 82
-3.51961 -106.046 -6.4544 73 94 82
-3.51949 -106.046 -6.40992 73 94 82
-3.51938 -106.046 -6.36545 73 94 82
-3.51926 -106.046 -6.32098 73 94 82
-3.51915 -106.046 -6.2765 73 94 82
-3.51903 -106.046 -6.23203 74 94 82
-3.51892 -106.046 -6.18756 74 94 83
-3.5188 -106.046 -6.14308 74 95 83
-3.51869 -106.046 -6.09861 74 95 83
-3.51857 -106.046 -6.05414 74 95 83
-3.51846 -106.046 -6.00966 74 95 83
-3.51834 -106.046 -5.96519 74 95 83
-3.51823 -106.046 -5.92072 73 94 82
-3.51811 -106.046 -5.87625 72 93 82
-3.518 -106.046 -5.83177 71 92 81
-3.51788 -106.046 -5.7873 70 91 80
-3.51777 -106.046 -5.74283 69 90 79
-3.51765 -106.046 -5.69835 69 90 79
-3.51731 -106.046 -5.56493 66 88 76
-3.51719 -106.046 -5.52046 64 86 74
-3.22517 -97.877 -12.1158 27 37 30
-3.22507 -97.877 -12.0748 27 37 30
-3.22496 -97.877 -12.0337 28 38 31
-3.22485 -97.877 -11.9927 28 38 31
-3.22475 -97.877 -11.9516 28 39 32
-3.22464 -97.877 -11.9106 29 39 32
-3.07642 -93.3872 -11.2467 32 42 36
-3.07632 -93.3872 -11.2075 33 44 37
-3.05409 -92.9608 -7.99815 53 70 58
-3.05399 -92.9608 -7.95916 54 70 59
-3.21539 -97.877 -8.33903 54 71 59
-3.21529 -97.877 -8.29798 54 71 59
-3.21518 -97.877 -8.25692 54 71 59
-3.21508 -97.877 -8.21587 55 71 60
-3.21497 -97.877 -8.17482 55 71 60
-3.21486 -97.877 -8.13377 55 72 60
-3.21476 -97.877 -8.09272 55 72 60
-3.21465 -97.877 -8.05166 56 72 61
-3.21454 -97.877 -8.01061 56 73 61
-3.21444 -97.877 -7.96956 56 73 62
-3.21433 -97.877 -7.92851 57 73 62
-3.21423 -97.877 -7.88745 57 74 63
-3.13867 -95.5794 -7.66221 58 75 64
-3.13857 -95.5794 -7.62213 59 76 64
-3.13805 -95.5794 -7.42168 65 82 71
-3.13794 -95.5794 -7.3816 67 84 72
-3.13784 -95.5794 -7.34151 68 86 74
-3.13774 -95.5794 -7.30142 70 88 76
-3.13763 -95.5794 -7.26133 72 89 77
-3.13753 -95.5794 -7.22124 73 91 79
-3.13701 -95.5794 -7.0208 82 101 89
-3.13691 -95.5794 -6.98071 84 103 90
-3.1368 -95.5794 -6.94062 86 105 92
-3.1367 -95.5794 -6.90053 87 106 94
-3.21178 -97.877 -6.94326 90 111 98
-3.21167 -97.877 -6.9022 91 111 98
-3.21157 -97.877 -6.86115 91 112 99
-3.21146 -97.877 -6.8201 91 112 99
-3.21136 -97.877 -6.77905 91 112 99
-3.21125 -97.877 -6.738 90 112 99
-3.21114 -97.877 -6.69694 90 112 99
-3.21104 -97.877 -6.65589 90 111 98
-3.21093 -97.877 -6.61484 89 111 98
-3.21082 -97.877 -6.57379 88 110 97
-3.21072 -97.877 -6.53274 88 109 96
-3.21061 -97.877 -6.49168 87 109 95
-3.21051 -97.877 -6.45063 86 108 95
-3.2104 -97.877 -6.40958 85 107 93
-3.21029 -97.877 -6.36853 83 106 92
-3.21019 -97.877 -6.32747 82 104 91
-3.21008 -97.877 -6.28642 80 103 89
-3.20997 -97.877 -6.24537 79 101 88
-3.47736 -106.033 -6.72134 77 99 86
-3.47724 -106.033 -6.67687 75 97 85
-3.47713 -106.033 -6.6324 74 96 83
-3.47701 -106.033 -6.58793 73 95 83
-3.4769 -106.033 -6.54345 73 94 82
-3.47678 -106.033 -6.49898 73 94 82
-3.47667 -106.033 -6.45451 73 93 82
-3.47655 -106.033 -6.41003 73 94 82
-3.47644 -106.033 -6.36556 73 94 82
-3.47632 -106.033 -6.32109 73 94 82
-3.47621 -106.033 -6.27661 73 94 82
-3.47609 -106.033 -6.23214 74 94 82
-3.47598 -106.033 -6.18767 74 94 83
-3.47586 -106.033 -6.14319 74 95 83
-3.47575 -106.033 -6.09872 74 95 83
-3.47563 -106.033 -6.05425 74 95 83
-3.47551 -106.033 -6.00977 74 95 83
-3.4754 -106.033 -5.9653 74 95 83
-3.47528 -106.033 -5.92083 73 94 82
-3.47517 -106.033 -5.87636 72 93 82
-3.47505 -106.033 -5.83188 71 92 81
-3.47494 -106.033 -5.78741 70 91 80
-3.47482 -106.033 -5.74294 69 90 79
-3.47471 -106.033 -5.69846 69 90 79
-3.47436 -106.033 -5.56504 66 88 76
-3.47425 -106.033 -5.52057 64 86 74
-3.39393 -104.402 4.94233 103 120 106
-3.39382 -104.402 4.98612 103 120 107
-3.18553 -97.8657 -12.1159 27 37 30
-3.18543 -97.8657 -12.0749 27 38 31
-3.18532 -97.8657 -12.0338 28 38 31
-3.18521 -97.8657 -11.9928 28 38 31
-3.18511 -97.8657 -11.9517 28 39 32
-3.185 -97.8657 -11.9107 29 39 33
-3.02492 -92.9501 -11.2734 29 40 33
-3.02482 -92.9501 -11.2344 30 41 34
-3.0386 -93.3765 -11.2468 32 42 36
-3.0385 -93.3765 -11.2076 33 44 37
-3.17576 -97.8657 -8.33913 54 71 59
-3.17565 -97.8657 -8.29808 54 71 59
-3.17554 -97.8657 -8.25703 54 71 59
-3.17544 -97.8657 -8.21597 55 71 60
-3.17533 -97.8657 -8.17492 55 72 60
-3.17522 -97.8657 -8.13387 55 72 60
-3.17512 -97.8657 -8.09282 55 72 61
-3.17501 -97.8657 -8.05177 56 72 61
-3.1749 -97.8657 -8.01071 56 73 61
-3.1748 -97.8657 -7.96966 56 73 62
-3.17469 -97.8657 -7.92861 57 73 62
-3.17459 -97.8657 -7.88756 58 74 63
-3.15929 -97.3974 -7.80896 58 75 64
-3.15918 -97.3974 -7.76811 59 76 65
-3.15866 -97.3974 -7.56383 65 83 71
-3.15855 -97.3974 -7.52297 67 84 72
-3.15844 -97.3974 -7.48212 68 86 74
-3.15834 -97.3974 -7.44126 70 88 76
-3.15823 -97.3974 -7.4004 72 89 77
-3.15813 -97.3974 -7.35955 73 91 79
-3.01362 -92.9501 -6.90653 79 97 85
-3.01352 -92.9501 -6.86754 80 99 87
-3.1576 -97.3974 -7.15527 82 101 89
-3.15749 -97.3974 -7.11441 84 103 90
-3.15739 -97.3974 -7.07356 86 105 92
-3.15728 -97.3974 -7.0327 87 106 94
-3.01301 -92.9501 -6.67259 88 108 95
-3.01291 -92.9501 -6.6336 89 109 96
-3.17214 -97.8657 -6.94336 90 110 98
-3.17204 -97.8657 -6.90231 91 111 98
-3.17193 -97.8657 -6.86125 91 112 99
-3.17182 -97.8657 -6.8202 91 112 99
-3.17172 -97.8657 -6.77915 91 112 99
-3.17161 -97.8657 -6.7381 90 112 99
-3.1715 -97.8657 -6.69705 90 112 99
-3.1714 -97.8657 -6.65599 90 111 98
-3.17129 -97.8657 -6.61494 89 111 98
-3.17118 -97.8657 -6.57389 88 110 97
-3.17108 -97.8657 -6.53284 88 109 96
-3.17097 -97.8657 -6.49179 87 109 95
-3.17087 -97.8657 -6.45073 86 108 94
-3.17076 -97.8657 -6.40968 85 107 93
-3.17065 -97.8657 -6.36863 83 106 92
-3.17055 -97.8657 -6.32758 82 104 91
-3.17044 -97.8657 -6.28652 80 103 89
-3.17033 -97.8657 -6.24547 79 101 88
-3.43441 -106.021 -6.72146 77 99 86
-3.4343 -106.021 -6.67698 75 97 85
-3.43418 -106.021 -6.63251 74 96 83
-3.43407 -106.021 -6.58804 73 95 83
-3.43395 -106.021 -6.54356 73 94 82
-3.43384 -106.021 -6.49909 73 94 82
-3.43372 -106.021 -6.45462 73 93 82
-3.43361 -106.021 -6.41014 73 94 82
-3.43349 -106.021 -6.36567 73 94 82
-3.43338 -106.021 -6.3212 73 94 82
-3.43326 -106.021 -6.27672 73 94 82
-3.43315 -106.021 -6.23225 74 94 82
-3.43303 -106.021 -6.18778 74 94 83
-3.43292 -106.021 -6.1433 74 95 83
-3.4328 -106.021 -6.09883 74 95 83
-3.43269 -106.021 -6.05436 74 95 83
-3.43257 -106.021 -6.00989 74 95 83
-3.43246 -106.021 -5.96541 74 95 83
-3.43234 -106.021 -5.92094 73 94 82
-3.43223 -106.021 -5.87647 72 93 82
-3.43211 -106.021 -5.83199 71 92 81
-3.432 -106.021 -5.78752 70 91 80
-3.43188 -106.021 -5.74305 69 90 79
-3.43177 -106.021 -5.69857 69 90 79
-3.43142 -106.021 -5.56515 66 88 76
-3.43131 -106.021 -5.52068 64 86 74
-3.14589 -97.8544 -12.116 27 37 30
-3.14579 -97.8544 -12.075 28 38 31
-3.14568 -97.8544 -12.0339 28 38 31
-3.14557 -97.8544 -11.9929 28 39 32
-3.13042 -97.3862 -11.8946 29 39 32
-3.13031 -97.3862 -11.8538 29 40 33
-3.07142 -95.5574 -11.5911 30 40 34
-3.07132 -95.5574 -11.551 31 41 35
-3.07122 -95.5574 -11.5109 32 43 36
-3.07111 -95.5574 -11.4708 34 44 38
-3.11488 -96.9225 -11.594 36 46 40
-3.11477 -96.9225 -11.5534 38 49 42
-3.13612 -97.8544 -8.33923 54 71 59
-3.13601 -97.8544 -8.29818 54 71 59
-3.1359 -97.8544 -8.25713 54 71 59
-3.1358 -97.8544 -8.21608 55 71 60
-3.13569 -97.8544 -8.17502 55 72 60
-3.13558 -97.8544 -8.13397 55 72 60
-3.13548 -97.8544 -8.09292 55 72 61
-3.13537 -97.8544 -8.05187 56 72 61
-3.13527 -97.8544 -8.01082 56 73 61
-3.13516 -97.8544 -7.96976 57 73 62
-3.13505 -97.8544 -7.92871 57 74 62
-3.13495 -97.8544 -7.88766 58 74 63
-3.13484 -97.8544 -7.84661 58 75 64
-3.13473 -97.8544 -7.80555 59 76 65
-3.1342 -97.8544 -7.60029 65 83 71
-3.1341 -97.8544 -7.55924 67 84 72
-3.13399 -97.8544 -7.51819 68 86 74
-3.13388 -97.8544 -7.47714 70 88 76
-3.11878 -97.3862 -7.40051 72 89 77
-3.11868 -97.3862 -7.35965 73 91 79
-3.0598 -95.5574 -7.10118 79 97 85
-3.0597 -95.5574 -7.06109 81 99 87
-3.13314 -97.8544 -7.18977 82 101 89
-3.13303 -97.8544 -7.14872 84 103 90
-3.13293 -97.8544 -7.10767 86 105 92
-3.13282 -97.8544 -7.06662 87 106 94
-3.05918 -95.5574 -6.86065 88 108 95
-3.05907 -95.5574 -6.82056 89 109 96
-3.1325 -97.8544 -6.94346 90 110 98
-3.1324 -97.8544 -6.90241 91 111 98
-3.13229 -97.8544 -6.86136 91 112 99
-3.13218 -97.8544 -6.8203 91 112 99
-3.13208 -97.8544 -6.77925 91 112 99
-3.13197 -97.8544 -6.7382 90 112 99
-3.13186 -97.8544 -6.69715 90 112 99
-3.13176 -97.8544 -6.6561 90 111 98
-3.13165 -97.8544 -6.61504 89 111 98
-3.13155 -97.8544 -6.57399 88 110 97
-3.13144 -97.8544 -6.53294 88 109 96
-3.13133 -97.8544 -6.49189 87 109 95
-3.13123 -97.8544 -6.45084 86 108 94
-3.13112 -97.8544 -6.40978 85 107 93
-3.13101 -97.8544 -6.36873 83 105 92
-3.13091 -97.8544 -6.32768 82 104 91
-3.1308 -97.8544 -6.28663 80 103 89
-3.13069 -97.8544 -6.24557 78 101 88
-3.39147 -106.009 -6.72157 77 99 86
-3.39136 -106.009 -6.67709 75 97 84
-3.39124 -106.009 -6.63262 74 96 83
-3.39113 -106.009 -6.58815 73 95 82
-3.39101 -106.009 -6.54367 73 94 82
-3.3909 -106.009 -6.4992 73 94 82
-3.39078 -106.009 -6.45473 73 93 82
-3.39066 -106.009 -6.41025 73 93 82
-3.39055 -106.009 -6.36578 73 94 82
-3.39043 -106.009 -6.32131 73 94 82
-3.39032 -106.009 -6.27683 73 94 82
-3.3902 -106.009 -6.23236 74 94 82
-3.39009 -106.009 -6.18789 74 94 83
-3.38997 -106.009 -6.14342 74 95 83
-3.38986 -106.009 -6.09894 74 95 83
-3.38974 -106.009 -6.05447 74 95 83
-3.38963 -106.009 -6.01 74 95 83
-3.38951 -106.009 -5.96552 74 95 83
-3.3894 -106.009 -5.92105 73 94 82
-3.38928 -106.009 -5.87658 72 93 82
-3.38917 -106.009 -5.8321 71 92 81
-3.38905 -106.009 -5.78763 70 91 80
-3.38894 -106.009 -5.74316 69 90 79
-3.38882 -106.009 -5.69868 69 90 79
-3.47931 -108.843 -5.80539 69 90 78
-3.4792 -108.843 -5.75973 68 89 77
-3.38848 -106.009 -5.56526 66 88 76
-3.38836 -106.009 -5.52079 64 86 74
-3.10625 -97.8431 -12.1161 27 37 30
-3.10615 -97.8431 -12.0751 28 38 31
-3.10604 -97.8431 -12.034 28 38 31
-3.10593 -97.8431 -11.993 28 39 32
-3.03292 -95.5463 -11.6714 29 39 32
-3.03282 -95.5463 -11.6313 29 40 33
-3.09076 -97.375 -11.813 30 41 34
-3.09065 -97.375 -11.7722 31 41 35
-3.09055 -97.375 -11.7313 32 43 36
-3.09044 -97.375 -11.6905 34 44 38
-3.09648 -97.8431 -8.33933 54 71 59
-3.09637 -97.8431 -8.29828 54 71 59
-3.09626 -97.8431 -8.25723 55 71 60
-3.09616 -97.8431 -8.21618 55 71 60
-3.09605 -97.8431 -8.17513 55 72 60
-3.09594 -97.8431 -8.13407 55 72 60
-3.09584 -97.8431 -8.09302 56 72 61
-3.09573 -97.8431 -8.05197 56 73 61
-3.09563 -97.8431 -8.01092 56 73 61
-3.09552 -97.8431 -7.96987 57 73 62
-3.09541 -97.8431 -7.92881 57 74 62
-3.09531 -97.8431 -7.88776 58 74 63
-3.0952 -97.8431 -7.84671 58 75 64
-3.09509 -97.8431 -7.80566 59 76 65
-2.93953 -92.9286 -7.3746 61 77 66
-2.93943 -92.9286 -7.33561 62 78 67
-2.93933 -92.9286 -7.29662 63 80 68
-2.93923 -92.9286 -7.25763 64 81 69
-3.09456 -97.8431 -7.6004 65 83 71
-3.09446 -97.8431 -7.55934 67 84 72
-3.09435 -97.8431 -7.51829 68 86 74
-3.09424 -97.8431 -7.47724 70 88 76
-3.0215 -95.5463 -7.26163 72 89 77
-3.0214 -95.5463 -7.22154 73 91 79
-3.07891 -97.375 -7.23719 79 97 85
-3.0788 -97.375 -7.19633 80 99 87
-3.0935 -97.8431 -7.18988 82 101 89
-3.09339 -97.8431 -7.14882 84 103 90
-3.09329 -97.8431 -7.10777 86 105 92
-3.09318 -97.8431 -7.06672 87 106 94
-3.07828 -97.375 -6.99205 88 108 95
-3.07817 -97.375 -6.9512 89 109 96
-3.09286 -97.8431 -6.94356 90 110 97
-3.09276 -97.8431 -6.90251 91 111 98
-3.09265 -97.8431 -6.86146 91 112 99
-3.09254 -97.8431 -6.82041 91 112 99
-3.09244 -97.8431 -6.77935 91 112 99
-3.09233 -97.8431 -6.7383 90 112 99
-3.09222 -97.8431 -6.69725 90 111 99
-3.09212 -97.8431 -6.6562 89 111 98
-3.09201 -97.8431 -6.61515 89 111 98
-3.09191 -97.8431 -6.57409 88 110 97
-3.0918 -97.8431 -6.53304 87 109 96
-3.09169 -97.8431 -6.49199 87 108 95
-3.09159 -97.8431 -6.45094 86 108 94
-3.09148 -97.8431 -6.40988 85 106 93
-3.09137 -97.8431 -6.36883 83 105 92
-3.09127 -97.8431 -6.32778 82 104 91
-3.09116 -97.8431 -6.28673 80 103 89
-3.09106 -97.8431 -6.24568 78 101 88
-3.34853 -105.997 -6.72168 77 99 86
-3.34841 -105.997 -6.6772 75 97 84
-3.3483 -105.997 -6.63273 74 96 83
-3.34818 -105.997 -6.58826 73 95 82
-3.34807 -105.997 -6.54378 73 94 82
-3.34795 -105.997 -6.49931 73 93 82
-3.34784 -105.997 -6.45484 73 93 81
-3.34772 -105.997 -6.41036 73 93 82
-3.34761 -105.997 -6.36589 73 94 82
-3.34749 -105.997 -6.32142 73 94 82
-3.34738 -105.997 -6.27695 73 94 82
-3.34726 -105.997 -6.23247 73 94 82
-3.34715 -105.997 -6.188 74 94 83
-3.34703 -105.997 -6.14353 74 95 83
-3.34692 -105.997 -6.09905 74 95 83
-3.3468 -105.997 -6.05458 74 95 83
-3.34669 -105.997 -6.01011 74 95 83
-3.34657 -105.997 -5.96563 74 95 83
-3.34646 -105.997 -5.92116 73 94 82
-3.34634 -105.997 -5.87669 72 93 82
-3.34623 -105.997 -5.83221 71 92 81
-3.34611 -105.997 -5.78774 70 91 80
-3.34599 -105.997 -5.74327 69 90 79
-3.34588 -105.997 -5.69879 69 90 79
-3.36328 -106.552 -5.68393 69 90 78
-3.36317 -106.552 -5.63922 68 89 77
-3.34553 -105.997 -5.56538 66 88 76
-3.34542 -105.997 -5.5209 64 86 74
-2.89703 -92.5062 3.91466 72 83 74
-2.89693 -92.5062 3.95347 76 88 78
-3.06661 -97.8318 -12.1162 27 38 31
-3.06651 -97.8318 -12.0752 28 38 31
-3.05173 -97.3637 -11.9765 28 39 32
-3.05162 -97.3637 -11.9357 28 39 32
-2.91218 -92.9179 -11.3517 29 40 32
-2.91208 -92.9179 -11.3127 29 40 33
-3.05131 -97.3637 -11.8131 30 41 34
-3.0512 -97.3637 -11.7723 31 42 35
-3.05109 -97.3637 -11.7314 32 43 36
-3.05099 -97.3637 -11.6906 34 45 38
-3.04221 -97.3637 -8.29953 54 71 59
-3.0421 -97.3637 -8.25868 54 71 59
-3.05662 -97.8318 -8.25733 55 71 60
-3.05652 -97.8318 -8.21628 55 72 60
-3.05641 -97.8318 -8.17523 55 72 60
-3.0563 -97.8318 -8.13418 55 72 60
-3.0562 -97.8318 -8.09312 56 72 61
-3.05609 -97.8318 -8.05207 56 73 61
-3.05599 -97.8318 -8.01102 56 73 61
-3.05588 -97.8318 -7.96997 57 73 62
-3.05577 -97.8318 -7.92892 57 74 62
-3.05567 -97.8318 -7.88786 58 74 63
-3.05556 -97.8318 -7.84681 58 75 64
-3.05545 -97.8318 -7.80576 59 76 65
-2.98363 -95.5353 -7.58244 61 77 66
-2.98352 -95.5353 -7.54235 62 78 67
-2.96948 -95.0889 -7.4672 63 80 68
-2.96937 -95.0889 -7.4273 64 81 69
-3.05492 -97.8318 -7.6005 65 83 71
-3.05482 -97.8318 -7.55945 67 84 72
-3.04009 -97.3637 -7.48242 68 86 74
-3.03999 -97.3637 -7.44157 70 88 76
-2.90108 -92.9179 -7.06278 72 89 77
-2.90097 -92.9179 -7.02379 73 91 79
-3.05407 -97.8318 -7.27208 79 97 85
-3.05397 -97.8318 -7.23103 80 99 87
-3.05386 -97.8318 -7.18998 82 101 89
-3.05375 -97.8318 -7.14892 84 103 90
-3.05365 -97.8318 -7.10787 86 105 92
-3.05354 -97.8318 -7.06682 87 106 94
-3.05343 -97.8318 -7.02577 88 108 95
-3.05333 -97.8318 -6.98472 89 109 96
-3.05322 -97.8318 -6.94366 90 110 97
-3.05312 -97.8318 -6.90261 91 111 98
-3.05301 -97.8318 -6.86156 91 112 99
-3.0529 -97.8318 -6.82051 91 112 99
-3.0528 -97.8318 -6.77946 91 112 99
-3.05269 -97.8318 -6.7384 90 112 99
-3.05258 -97.8318 -6.69735 90 111 98
-3.05248 -97.8318 -6.6563 89 111 98
-3.05237 -97.8318 -6.61525 89 110 97
-3.05227 -97.8318 -6.5742 88 110 97
-3.05216 -97.8318 -6.53314 87 109 96
-3.05205 -97.8318 -6.49209 87 108 95
-3.05195 -97.8318 -6.45104 86 107 94
-3.05184 -97.8318 -6.40999 84 106 93
-3.05173 -97.8318 -6.36893 83 105 92
-3.05163 -97.8318 -6.32788 82 104 91
-3.06626 -98.3044 -6.3172 80 102 89
-3.06616 -98.3044 -6.27595 78 101 88
-3.30558 -105.984 -6.72179 76 99 86
-3.30547 -105.984 -6.67731 75 97 84
-3.30535 -105.984 -6.63284 74 95 83
-3.30524 -105.984 -6.58837 73 94 82
-3.30512 -105.984 -6.54389 73 94 82
-3.30501 -105.984 -6.49942 72 93 82
-3.30489 -105.984 -6.45495 73 93 81
-3.30478 -105.984 -6.41048 73 93 82
-3.30466 -105.984 -6.366 73 94 82
-3.30455 -105.984 -6.32153 73 94 82
-3.30443 -105.984 -6.27706 73 94 82
-3.30432 -105.984 -6.23258 73 94 82
-3.3042 -105.984 -6.18811 74 94 83
-3.30409 -105.984 -6.14364 74 94 83
-3.30397 -105.984 -6.09916 74 95 83
-3.30386 -105.984 -6.05469 74 95 83
-3.30374 -105.984 -6.01022 74 95 83
-3.30363 -105.984 -5.96574 74 95 83
-3.30351 -105.984 -5.92127 73 94 82
-3.3034 -105.984 -5.8768 72 93 82
-3.30328 -105.984 -5.83232 71 92 81
-3.30317 -105.984 -5.78785 70 91 80
-3.30305 -105.984 -5.74338 69 90 79
-3.30294 -105.984 -5.69891 69 90 79
-3.30282 -105.984 -5.65443 69 90 78
-3.30271 -105.984 -5.60996 68 89 77
-3.30259 -105.984 -5.56549 66 88 76
-3.30248 -105.984 -5.52101 64 86 74
-3.39066 -108.818 -5.62297 62 83 72
-3.39054 -108.818 -5.57731 59 80 69
-3.47876 -112.413 -14.0181 27 37 30
-3.47863 -112.413 -13.9709 27 37 30
-3.02697 -97.8205 -12.1163 28 38 31
-3.02687 -97.8205 -12.0753 28 38 31
-2.95571 -95.5243 -11.7517 28 39 32
-2.95561 -95.5243 -11.7116 29 39 32
-2.9553 -95.5243 -11.5914 30 41 34
-2.95519 -95.5243 -11.5513 31 42 35
-2.95509 -95.5243 -11.5112 32 43 36
-2.95498 -95.5243 -11.4711 34 45 38
-2.94637 -95.5243 -8.14377 54 71 59
-2.94627 -95.5243 -8.10369 54 71 59
-3.01698 -97.8205 -8.25743 55 71 60
-3.01688 -97.8205 -8.21638 55 72 60
-3.01677 -97.8205 -8.17533 55 72 60
-3.01666 -97.8205 -8.13428 55 72 60
-3.01656 -97.8205 -8.09323 56 72 61
-3.01645 -97.8205 -8.05217 56 73 61
-3.01635 -97.8205 -8.01112 56 73 61
-3.01624 -97.8205 -7.97007 57 73 62
-3.01613 -97.8205 -7.92902 57 74 62
-3.01603 -97.8205 -7.88796 58 74 63
-3.01592 -97.8205 -7.84691 58 75 64
-3.01581 -97.8205 -7.80586 59 76 65
-3.00128 -97.3525 -7.72766 61 77 66
-3.00117 -97.3525 -7.6868 62 78 67
-2.93095 -95.0779 -7.4673 63 80 68
-2.93085 -95.0779 -7.4274 64 81 69
-3.01528 -97.8205 -7.6006 65 83 71
-3.01518 -97.8205 -7.55955 67 84 72
-2.94429 -95.5243 -7.34201 68 86 74
-2.94419 -95.5243 -7.30192 70 88 76
-3.01443 -97.8205 -7.27218 79 97 85
-3.01433 -97.8205 -7.23113 80 99 87
-3.01422 -97.8205 -7.19008 82 101 88
-3.01411 -97.8205 -7.14903 84 103 90
-3.01401 -97.8205 -7.10797 85 105 92
-3.0139 -97.8205 -7.06692 87 106 94
-3.0138 -97.8205 -7.02587 88 108 95
-3.01369 -97.8205 -6.98482 89 109 96
-3.01358 -97.8205 -6.94377 90 110 97
-3.01348 -97.8205 -6.90271 91 111 98
-3.01337 -97.8205 -6.86166 91 112 99
-3.01326 -97.8205 -6.82061 91 112 99
-3.01316 -97.8205 -6.77956 91 112 99
-3.01305 -97.8205 -6.73851 90 112 99
-3.01294 -97.8205 -6.69745 90 111 98
-3.01284 -97.8205 -6.6564 89 111 98
-3.01273 -97.8205 -6.61535 89 110 97
-3.01263 -97.8205 -6.5743 88 110 97
-3.01252 -97.8205 -6.53325 87 109 96
-3.01241 -97.8205 -6.49219 86 108 95
-3.01231 -97.8205 -6.45114 86 107 94
-3.0122 -97.8205 -6.41009 84 106 93
-3.01209 -97.8205 -6.36904 83 105 92
-3.01199 -97.8205 -6.32798 82 104 91
-3.08607 -100.23 -6.44178 80 102 89
-3.08596 -100.23 -6.39972 78 100 87
-3.26264 -105.972 -6.7219 76 98 86
-3.26253 -105.972 -6.67742 75 97 84
-3.26241 -105.972 -6.63295 74 95 83
-3.2623 -105.972 -6.58848 73 94 82
-3.26218 -105.972 -6.54401 73 94 82
-3.26207 -105.972 -6.49953 72 93 82
-3.26195 -105.972 -6.45506 72 93 81
-3.26184 -105.972 -6.41059 73 93 82
-3.26172 -105.972 -6.36611 73 94 82
-3.26161 -105.972 -6.32164 73 94 82
-3.26149 -105.972 -6.27717 73 94 82
-3.26138 -105.972 -6.23269 73 94 82
-3.26126 -105.972 -6.18822 74 94 83
-3.26114 -105.972 -6.14375 74 94 83
-3.26103 -105.972 -6.09927 74 95 83
-3.26091 -105.972 -6.0548 74 95 83
-3.2608 -105.972 -6.01033 74 95 83
-3.26068 -105.972 -5.96585 74 95 83
-3.26057 -105.972 -5.92138 73 94 82
-3.26045 -105.972 -5.87691 72 93 82
-3.26034 -105.972 -5.83244 71 92 81
-3.26022 -105.972 -5.78796 70 91 80
-3.26011 -105.972 -5.74349 69 90 79
-3.25999 -105.972 -5.69902 69 90 79
-3.25988 -105.972 -5.65454 69 90 78
-3.25976 -105.972 -5.61007 68 89 77
-3.25965 -105.972 -5.5656 66 88 76
-3.25953 -105.972 -5.52112 64 86 74
-3.27648 -106.527 -5.50532 62 83 72
-3.27637 -106.527 -5.46062 59 80 69
-3.10273 -101.733 4.90363 102 120 106
-3.10262 -101.733 4.94633 103 120 106
-3.30537 -108.214 -13.4963 27 37 30
-3.30525 -108.214 -13.4508 27 38 31
-2.98733 -97.8092 -12.1164 28 38 31
-2.98723 -97.8092 -12.0754 28 39 31
-2.83708 -92.8964 -11.4299 28 39 32
-2.83698 -92.8964 -11.3909 29 40 32
-2.83668 -92.8964 -11.2739 30 41 34
-2.83658 -92.8964 -11.2349 31 42 35
-2.83648 -92.8964 -11.1959 33 43 37
-2.83638 -92.8964 -11.1569 34 45 38
-2.828 -92.8964 -7.92075 54 71 59
-2.8279 -92.8964 -7.88176 55 71 60
-2.97734 -97.8092 -8.25754 55 71 60
-2.97724 -97.8092 -8.21648 55 72 60
-2.97713 -97.8092 -8.17543 55 72 60
-2.97702 -97.8092 -8.13438 55 72 60
-2.97692 -97.8092 -8.09333 56 72 61
-2.97681 -97.8092 -8.05228 56 73 61
-2.97671 -97.8092 -8.01122 56 73 61
-2.9766 -97.8092 -7.97017 57 73 62
-2.97649 -97.8092 -7.92912 57 74 62
-2.97639 -97.8092 -7.88807 58 74 63
-2.97628 -97.8092 -7.84701 58 75 64
-2.97617 -97.8092 -7.80596 59 76 65
-2.97607 -97.8092 -7.76491 61 77 66
-2.97596 -97.8092 -7.72386 62 79 67
-2.82638 -92.8964 -7.29691 63 80 68
-2.82628 -92.8964 -7.25792 64 81 69
-2.97564 -97.8092 -7.6007 65 83 71
-2.97554 -97.8092 -7.55965 67 84 72
-2.83894 -93.3226 -7.17371 68 86 74
-2.83884 -93.3226 -7.13454 70 88 76
-2.97479 -97.8092 -7.27229 79 97 85
-2.97469 -97.8092 -7.23123 80 99 87
-2.97458 -97.8092 -7.19018 82 101 88
-2.97447 -97.8092 -7.14913 84 103 90
-2.97437 -97.8092 -7.10808 85 105 92
-2.97426 -97.8092 -7.06702 87 106 93
-2.97416 -97.8092 -7.02597 88 108 95
-2.97405 -97.8092 -6.98492 89 109 96
-2.97394 -97.8092 -6.94387 90 110 97
-2.97384 -97.8092 -6.90282 91 111 98
-2.97373 -97.8092 -6.86176 91 112 99
-2.97362 -97.8092 -6.82071 91 112 99
-2.97352 -97.8092 -6.77966 91 112 99
-2.97341 -97.8092 -6.73861 90 112 99
-2.97331 -97.8092 -6.69756 90 111 98
-2.9732 -97.8092 -6.6565 89 111 98
-2.97309 -97.8092 -6.61545 89 110 97
-2.97299 -97.8092 -6.5744 88 110 97
-2.97288 -97.8092 -6.53335 87 109 96
-2.97277 -97.8092 -6.4923 86 108 95
-2.97267 -97.8092 -6.45124 85 107 94
-2.97256 -97.8092 -6.41019 84 106 93
-2.98681 -98.2817 -6.39991 83 105 92
-2.98671 -98.2817 -6.35866 82 104 91
-3.1382 -103.271 -6.63809 80 102 89
-3.13809 -103.271 -6.59474 78 100 87
-3.2197 -105.96 -6.72201 76 98 86
-3.21958 -105.96 -6.67754 75 97 84
-3.21947 -105.96 -6.63306 74 95 83
-3.21935 -105.96 -6.58859 73 94 82
-3.21924 -105.96 -6.54412 73 94 82
-3.21912 -105.96 -6.49964 72 93 82
-3.21901 -105.96 -6.45517 72 93 81
-3.21889 -105.96 -6.4107 73 93 82
-3.21878 -105.96 -6.36622 73 93 82
-3.21866 -105.96 -6.32175 73 94 82
-3.21855 -105.96 -6.27728 73 94 82
-3.21843 -105.96 -6.2328 73 94 82
-3.21832 -105.96 -6.18833 74 94 83
-3.2182 -105.96 -6.14386 74 94 83
-3.21809 -105.96 -6.09938 74 95 83
-3.21797 -105.96 -6.05491 74 95 83
-3.21786 -105.96 -6.01044 74 95 83
-3.21774 -105.96 -5.96597 74 95 83
-3.21763 -105.96 -5.92149 73 94 82
-3.21751 -105.96 -5.87702 72 93 82
-3.2174 -105.96 -5.83255 71 92 81
-3.21728 -105.96 -5.78807 70 91 80
-3.21717 -105.96 -5.7436 69 90 79
-3.21705 -105.96 -5.69913 69 90 79
-3.21694 -105.96 -5.65465 69 90 78
-3.21682 -105.96 -5.61018 68 89 77
-3.21671 -105.96 -5.56571 66 88 76
-3.21659 -105.96 -5.52123 64 86 74
-3.21647 -105.96 -5.47676 62 83 72
-3.21636 -105.96 -5.43229 59 80 69
-3.38789 -112.387 -14.1127 26 36 30
-3.38777 -112.387 -14.0655 27 37 30
-3.12839 -103.786 -12.9455 27 37 30
-3.12828 -103.786 -12.9019 28 38 31
-2.94769 -97.7979 -12.1165 28 38 31
-2.94759 -97.7979 -12.0755 28 39 32
-2.91857 -96.8665 -11.5945 36 48 41
-2.91846 -96.8665 -11.5539 39 50 43
-2.9377 -97.7979 -8.25764 55 72 60
-2.9376 -97.7979 -8.21659 55 72 60
-2.93749 -97.7979 -8.17553 55 72 60
-2.93739 -97.7979 -8.13448 55 72 60
-2.93728 -97.7979 -8.09343 56 72 61
-2.93717 -97.7979 -8.05238 56 73 61
-2.93707 -97.7979 -8.01133 56 73 61
-2.93696 -97.7979 -7.97027 57 73 62
-2.93685 -97.7979 -7.92922 57 74 62
-2.93675 -97.7979 -7.88817 58 74 63
-2.93664 -97.7979 -7.84712 59 75 64
-2.93653 -97.7979 -7.80606 59 76 65
-2.93643 -97.7979 -7.76501 61 77 66
-2.93632 -97.7979 -7.72396 62 79 67
-2.936 -97.7979 -7.6008 65 83 71
-2.9359 -97.7979 -7.55975 67 84 72
-2.80112 -93.3118 -7.17381 68 86 74
-2.80102 -93.3118 -7.13464 70 88 76
-2.78813 -92.8857 -7.06307 72 89 77
-2.78803 -92.8857 -7.02408 73 91 79
-2.78793 -92.8857 -6.98509 75 93 81
-2.78783 -92.8857 -6.9461 77 95 83
-2.93515 -97.7979 -7.27239 79 97 85
-2.93505 -97.7979 -7.23134 80 99 87
-2.93494 -97.7979 -7.19028 82 101 88
-2.93483 -97.7979 -7.14923 84 103 90
-2.93473 -97.7979 -7.10818 85 105 92
-2.93462 -97.7979 -7.06713 87 106 93
-2.93452 -97.7979 -7.02607 88 108 95
-2.93441 -97.7979 -6.98502 89 109 96
-2.9343 -97.7979 -6.94397 90 110 97
-2.9342 -97.7979 -6.90292 90 111 98
-2.93409 -97.7979 -6.86187 91 112 99
-2.93398 -97.7979 -6.82081 91 112 99
-2.93388 -97.7979 -6.77976 91 112 99
-2.93377 -97.7979 -6.73871 90 112 99
-2.93367 -97.7979 -6.69766 90 111 98
-2.93356 -97.7979 -6.65661 89 111 98
-2.93345 -97.7979 -6.61555 89 110 97
-2.93335 -97.7979 -6.5745 88 110 97
-2.93324 -97.7979 -6.53345 87 109 96
-2.93313 -97.7979 -6.4924 86 108 95
-2.93303 -97.7979 -6.45135 85 107 94
-2.93292 -97.7979 -6.41029 84 106 93
-3.00505 -100.207 -6.52612 83 105 92
-3.00494 -100.207 -6.48406 82 104 91
-3.16052 -105.399 -6.77577 80 102 89
-3.16041 -105.399 -6.73153 78 100 87
-3.17676 -105.948 -6.72212 76 98 86
-3.17664 -105.948 -6.67765 75 97 84
-3.17653 -105.948 -6.63317 74 95 83
-3.17641 -105.948 -6.5887 73 94 82
-3.1763 -105.948 -6.54423 73 94 82
-3.17618 -105.948 -6.49975 72 93 82
-3.17606 -105.948 -6.45528 72 93 81
-3.17595 -105.948 -6.41081 73 93 82
-3.17583 -105.948 -6.36633 73 93 82
-3.17572 -105.948 -6.32186 73 94 82
-3.1756 -105.948 -6.27739 73 94 82
-3.17549 -105.948 -6.23291 73 94 82
-3.17537 -105.948 -6.18844 74 94 83
-3.17526 -105.948 -6.14397 74 94 83
-3.17514 -105.948 -6.0995 74 95 83
-3.17503 -105.948 -6.05502 74 95 83
-3.17491 -105.948 -6.01055 74 95 83
-3.1748 -105.948 -5.96608 74 95 83
-3.17468 -105.948 -5.9216 73 94 82
-3.17457 -105.948 -5.87713 72 93 82
-3.17445 -105.948 -5.83266 71 92 81
-3.17434 -105.948 -5.78818 70 91 80
-3.17422 -105.948 -5.74371 69 90 79
-3.17411 -105.948 -5.69924 69 90 79
-3.17399 -105.948 -5.65476 69 90 78
-3.17388 -105.948 -5.61029 68 89 77
-3.17376 -105.948 -5.56582 66 88 76
-3.17365 -105.948 -5.52134 64 86 74
-3.17353 -105.948 -5.47687 62 83 72
-3.17342 -105.948 -5.4324 59 80 69
-3.2351 -108.768 -13.66 27 36 30
-3.23498 -108.768 -13.6143 27 37 30
-2.9799 -100.195 -12.4992 27 37 30
-2.97979 -100.195 -12.4571 28 38 31
-2.90806 -97.7866 -12.1166 28 39 31
-2.90795 -97.7866 -12.0756 28 39 32
-2.8842 -97.3187 -8.21823 55 72 60
-2.88409 -97.3187 -8.17737 55 72 60
-2.89785 -97.7866 -8.17564 55 72 60
-2.89775 -97.7866 -8.13458 56 72 61
-2.89764 -97.7866 -8.09353 56 73 61
-2.89753 -97.7866 -8.05248 56 73 61
-2.89743 -97.7866 -8.01143 56 73 61
-2.89732 -97.7866 -7.97038 57 73 62
-2.89721 -97.7866 -7.92932 57 74 62
-2.89711 -97.7866 -7.88827 58 74 63
-2.897 -97.7866 -7.84722 59 75 64
-2.8969 -97.7866 -7.80617 60 76 65
-2.89679 -97.7866 -7.76511 61 77 66
-2.89668 -97.7866 -7.72406 62 79 67
-2.89636 -97.7866 -7.60091 65 83 71
-2.89626 -97.7866 -7.55985 67 84 72
-2.82817 -95.4912 -7.3423 68 86 74
-2.82806 -95.4912 -7.30222 70 88 76
-2.82796 -95.4912 -7.26213 72 89 77
-2.82786 -95.4912 -7.22204 73 91 79
-2.82775 -95.4912 -7.18195 75 93 81
-2.82765 -95.4912 -7.14186 77 95 83
-2.89551 -97.7866 -7.27249 79 97 85
-2.89541 -97.7866 -7.23144 80 99 87
-2.8953 -97.7866 -7.19039 82 101 88
-2.89519 -97.7866 -7.14933 84 103 90
-2.89509 -97.7866 -7.10828 85 105 92
-2.89498 -97.7866 -7.06723 87 106 93
-2.89488 -97.7866 -7.02618 88 108 95
-2.89477 -97.7866 -6.98512 89 109 96
-2.89466 -97.7866 -6.94407 90 110 97
-2.89456 -97.7866 -6.90302 90 111 98
-2.89445 -97.7866 -6.86197 91 112 99
-2.89434 -97.7866 -6.82092 91 112 99
-2.89424 -97.7866 -6.77986 91 112 99
-2.89413 -97.7866 -6.73881 90 112 99
-2.89403 -97.7866 -6.69776 90 111 98
-2.89392 -97.7866 -6.65671 89 111 98
-2.89381 -97.7866 -6.61566 89 110 97
-2.89371 -97.7866 -6.5746 88 110 97
-2.8936 -97.7866 -6.53355 87 109 96
-2.89349 -97.7866 -6.4925 86 108 95
-2.89339 -97.7866 -6.45145 85 107 94
-2.89328 -97.7866 -6.4104 84 106 93
-3.05472 -103.247 -6.72499 83 105 92
-3.05461 -103.247 -6.68165 82 104 90
-3.13404 -105.936 -6.81118 80 102 89
-3.13393 -105.936 -6.7667 78 100 87
-3.13381 -105.936 -6.72223 76 98 86
-3.1337 -105.936 -6.67776 75 96 84
-3.13358 -105.936 -6.63328 74 95 83
-3.13347 -105.936 -6.58881 73 94 82
-3.13335 -105.936 -6.54434 72 94 82
-3.13324 -105.936 -6.49986 72 93 81
-3.13312 -105.936 -6.45539 72 93 81
-3.13301 -105.936 -6.41092 73 93 81
-3.13289 -105.936 -6.36644 73 93 82
-3.13278 -105.936 -6.32197 73 94 82
-3.13266 -105.936 -6.2775 73 94 82
-3.13255 -105.936 -6.23302 73 94 82
-3.13243 -105.936 -6.18855 74 94 83
-3.13232 -105.936 -6.14408 74 94 83
-3.1322 -105.936 -6.09961 74 95 83
-3.13209 -105.936 -6.05513 74 95 83
-3.13197 -105.936 -6.01066 74 95 83
-3.13186 -105.936 -5.96619 74 95 83
-3.13174 -105.936 -5.92171 73 94 82
-3.13163 -105.936 -5.87724 72 93 82
-3.13151 -105.936 -5.83277 71 92 81
-3.13139 -105.936 -5.78829 70 91 80
-3.13128 -105.936 -5.74382 69 90 79
-3.13116 -105.936 -5.69935 69 90 79
-3.13105 -105.936 -5.65487 69 90 78
-3.13093 -105.936 -5.6104 68 89 77
-3.13082 -105.936 -5.56593 66 88 76
-3.1307 -105.936 -5.52146 64 86 74
-3.13059 -105.936 -5.47698 62 83 72
-3.13047 -105.936 -5.43251 59 80 69
-3.12418 -106.478 -13.374 27 37 30
-3.12407 -106.478 -13.3293 27 37 30
-2.88249 -98.2477 -12.2578 27 38 31
-2.88238 -98.2477 -12.2165 28 38 31
-2.86842 -97.7753 -12.1167 28 39 31
-2.86831 -97.7753 -12.0757 29 39 32
-2.72414 -92.8642 -11.4302 29 40 32
-2.72404 -92.8642 -11.3912 29 40 33
-2.79133 -95.4801 -8.064 55 72 60
-2.79122 -95.4801 -8.02391 55 72 60
-2.85821 -97.7753 -8.17574 55 72 60
-2.85811 -97.7753 -8.13469 56 72 61
-2.858 -97.7753 -8.09363 56 73 61
-2.85789 -97.7753 -8.05258 56 73 61
-2.85779 -97.7753 -8.01153 56 73 61
-2.85768 -97.7753 -7.97048 57 74 62
-2.85757 -97.7753 -7.92943 57 74 62
-2.85747 -97.7753 -7.88837 58 74 63
-2.85736 -97.7753 -7.84732 59 75 64
-2.85726 -97.7753 -7.80627 60 76 65
-2.85715 -97.7753 -7.76522 61 77 66
-2.85704 -97.7753 -7.72416 62 79 67
-2.85672 -97.7753 -7.60101 65 83 71
-2.85662 -97.7753 -7.55996 67 84 72
-2.84284 -97.3075 -7.48293 68 86 74
-2.84274 -97.3075 -7.44207 70 88 76
-2.84263 -97.3075 -7.40122 72 89 77
-2.84253 -97.3075 -7.36036 73 91 79
-2.84242 -97.3075 -7.31951 75 93 81
-2.84232 -97.3075 -7.27865 77 95 83
-2.85587 -97.7753 -7.27259 79 97 85
-2.85577 -97.7753 -7.23154 80 99 87
-2.85566 -97.7753 -7.19049 82 101 88
-2.85555 -97.7753 -7.14944 84 103 90
-2.85545 -97.7753 -7.10838 85 105 92
-2.85534 -97.7753 -7.06733 87 106 93
-2.85524 -97.7753 -7.02628 88 108 95
-2.85513 -97.7753 -6.98523 89 109 96
-2.85502 -97.7753 -6.94417 90 110 97
-2.85492 -97.7753 -6.90312 90 111 98
-2.85481 -97.7753 -6.86207 91 112 99
-2.8547 -97.7753 -6.82102 91 112 99
-2.8546 -97.7753 -6.77997 91 112 99
-2.85449 -97.7753 -6.73891 90 112 99
-2.85439 -97.7753 -6.69786 90 111 98
-2.85428 -97.7753 -6.65681 89 111 98
-2.85417 -97.7753 -6.61576 89 110 97
-2.85407 -97.7753 -6.57471 88 110 97
-2.85396 -97.7753 -6.53365 87 109 96
-2.85385 -97.7753 -6.4926 86 108 95
-2.85375 -97.7753 -6.45155 85 107 94
-2.85364 -97.7753 -6.4105 84 106 93
-3.07531 -105.374 -6.86448 83 105 92
-3.0752 -105.374 -6.82024 82 104 90
-3.0911 -105.923 -6.81129 80 102 89
-3.09098 -105.923 -6.76681 78 100 87
-3.09087 -105.923 -6.72234 76 98 86
-3.09075 -105.923 -6.67787 75 96 84
-3.09064 -105.923 -6.63339 74 95 83
-3.09052 -105.923 -6.58892 73 94 82
-3.09041 -105.923 -6.54445 72 94 82
-3.09029 -105.923 -6.49997 72 93 81
-3.09018 -105.923 -6.4555 72 93 81
-3.09006 -105.923 -6.41103 73 93 81
-3.08995 -105.923 -6.36655 73 93 82
-3.08983 -105.923 -6.32208 73 93 82
-3.08972 -105.923 -6.27761 73 94 82
-3.0896 -105.923 -6.23314 73 94 82
-3.08949 -105.923 -6.18866 73 94 83
-3.08937 -105.923 -6.14419 74 94 83
-3.08926 -105.923 -6.09972 74 95 83
-3.08914 -105.923 -6.05524 74 95 83
-3.08903 -105.923 -6.01077 74 95 83
-3.08891 -105.923 -5.9663 74 95 83
-3.0888 -105.923 -5.92182 73 94 82
-3.08868 -105.923 -5.87735 72 93 82
-3.08857 -105.923 -5.83288 71 92 81
-3.08845 -105.923 -5.7884 70 91 80
-3.08834 -105.923 -5.74393 70 90 79
-3.08822 -105.923 -5.69946 69 90 79
-3.08811 -105.923 -5.65499 69 90 78
-3.08799 -105.923 -5.61051 68 89 77
-3.08788 -105.923 -5.56604 66 88 76
-3.08776 -105.923 -5.52157 64 86 74
-3.08765 -105.923 -5.47709 62 83 72
-3.08753 -105.923 -5.43262 59 80 69
-3.07557 -106.478 5.40249 103 120 107
-3.07545 -106.478 5.44719 103 120 107
-3.23362 -111.73 -14.1293 26 36 30
-3.23349 -111.73 -14.0824 27 36 30
-3.06497 -105.911 -13.3045 27 37 30
-3.06485 -105.911 -13.26 27 37 30
-2.82899 -97.764 -12.1989 28 38 31
-2.82888 -97.764 -12.1579 28 38 31
-2.82878 -97.764 -12.1168 28 39 32
-2.82867 -97.764 -12.0758 29 39 32
-2.76216 -95.4691 -11.7522 29 40 32
-2.76206 -95.4691 -11.7121 29 40 33
-2.68948 -93.2794 -7.87914 55 72 60
-2.68938 -93.2794 -7.83997 55 72 60
-2.81857 -97.764 -8.17584 55 72 60
-2.81847 -97.764 -8.13479 56 72 61
-2.81836 -97.764 -8.09374 56 73 61
-2.81825 -97.764 -8.05268 56 73 61
-2.81815 -97.764 -8.01163 57 73 61
-2.81804 -97.764 -7.97058 57 74 62
-2.81793 -97.764 -7.92953 57 74 62
-2.81783 -97.764 -7.88848 58 75 63
-2.81772 -97.764 -7.84742 59 75 64
-2.81762 -97.764 -7.80637 60 76 65
-2.81751 -97.764 -7.76532 61 77 66
-2.8174 -97.764 -7.72427 62 79 67
-2.81708 -97.764 -7.60111 65 83 71
-2.81698 -97.764 -7.56006 67 84 72
-2.81687 -97.764 -7.51901 68 86 74
-2.81677 -97.764 -7.47795 70 88 76
-2.81666 -97.764 -7.4369 72 90 77
-2.81655 -97.764 -7.39585 73 91 79
-2.81645 -97.764 -7.3548 75 93 81
-2.81634 -97.764 -7.31375 77 95 83
-2.81623 -97.764 -7.27269 79 97 85
-2.81613 -97.764 -7.23164 80 99 87
-2.81602 -97.764 -7.19059 82 101 88
-2.81592 -97.764 -7.14954 84 103 90
-2.81581 -97.764 -7.10849 85 105 92
-2.8157 -97.764 -7.06743 87 106 93
-2.80212 -97.2963 -6.99276 88 108 95
-2.80202 -97.2963 -6.95191 89 109 96
-2.81538 -97.764 -6.94428 90 110 97
-2.81528 -97.764 -6.90322 90 111 98
-2.81517 -97.764 -6.86217 91 112 98
-2.81506 -97.764 -6.82112 91 112 99
-2.81496 -97.764 -6.78007 90 112 99
-2.81485 -97.764 -6.73902 90 111 98
-2.81475 -97.764 -6.69796 90 111 98
-2.81464 -97.764 -6.65691 89 111 98
-2.81453 -97.764 -6.61586 89 110 97
-2.81443 -97.764 -6.57481 88 110 97
-2.81432 -97.764 -6.53376 87 109 96
-2.81421 -97.764 -6.4927 86 108 95
-2.81411 -97.764 -6.45165 85 107 94
-2.814 -97.764 -6.4106 84 106 93
-3.03259 -105.362 -6.86459 83 105 92
-3.03248 -105.362 -6.82035 81 104 90
-3.04816 -105.911 -6.8114 80 102 89
-3.04804 -105.911 -6.76692 78 100 87
-3.04793 -105.911 -6.72245 76 98 85
-3.04781 -105.911 -6.67798 75 96 84
-3.0477 -105.911 -6.6335 73 95 83
-3.04758 -105.911 -6.58903 73 94 82
-3.04747 -105.911 -6.54456 72 93 82
-3.04735 -105.911 -6.50008 72 93 81
-3.04724 -105.911 -6.45561 72 93 81
-3.04712 -105.911 -6.41114 73 93 81
-3.04701 -105.911 -6.36667 73 93 82
-3.04689 -105.911 -6.32219 73 93 82
-3.04678 -105.911 -6.27772 73 94 82
-3.04666 -105.911 -6.23325 73 94 82
-3.04654 -105.911 -6.18877 73 94 82
-3.04643 -105.911 -6.1443 74 94 83
-3.04631 -105.911 -6.09983 74 95 83
-3.0462 -105.911 -6.05535 74 95 83
-3.04608 -105.911 -6.01088 74 95 83
-3.04597 -105.911 -5.96641 74 95 83
-3.04585 -105.911 -5.92193 73 94 82
-3.04574 -105.911 -5.87746 72 93 82
-3.04562 -105.911 -5.83299 71 92 81
-3.04551 -105.911 -5.78851 70 91 80
-3.04539 -105.911 -5.74404 70 90 79
-3.04528 -105.911 -5.69957 69 90 79
-3.04516 -105.911 -5.6551 69 90 78
-3.04505 -105.911 -5.61062 68 89 77
-3.04493 -105.911 -5.56615 66 88 76
-3.04482 -105.911 -5.52168 64 86 74
-3.0447 -105.911 -5.4772 62 83 71
-3.04459 -105.911 -5.43273 59 80 69
-2.63469 -92.4314 3.91399 67 78 69
-2.63459 -92.4314 3.9528 71 83 73
-3.04883 -107.026 5.25104 102 119 106
-3.04871 -107.026 5.29598 102 119 106
-3.13099 -109.918 5.48528 102 119 106
-3.13087 -109.918 5.53143 103 120 106
-2.82531 -99.1947 5.03343 103 120 107
-2.8252 -99.1947 5.07508 103 120 107
-3.05407 -107.014 -13.5345 26 36 30
-3.05395 -107.014 -13.4896 27 37 30
-3.02202 -105.899 -13.3046 27 37 30
-3.02191 -105.899 -13.2601 27 37 30
-2.78935 -97.7527 -12.199 28 38 31
-2.78924 -97.7527 -12.158 28 39 31
-2.78914 -97.7527 -12.1169 29 39 32
-2.78903 -97.7527 -12.0759 29 40 32
-2.77558 -97.285 -11.9773 29 40 33
-2.77547 -97.285 -11.9364 30 41 33
-2.64864 -92.8428 -11.3524 30 41 34
-2.64854 -92.8428 -11.3134 30 42 34
-2.64844 -92.8428 -11.2744 31 42 35
-2.64834 -92.8428 -11.2354 32 43 36
-2.65166 -93.2687 -7.87924 55 72 60
-2.65156 -93.2687 -7.84007 55 72 60
-2.77893 -97.7527 -8.17594 56 72 60
-2.77883 -97.7527 -8.13489 56 73 61
-2.77872 -97.7527 -8.09384 56 73 61
-2.77861 -97.7527 -8.05279 56 73 61
-2.77851 -97.7527 -8.01173 57 73 62
-2.7784 -97.7527 -7.97068 57 74 62
-2.77829 -97.7527 -7.92963 57 74 62
-2.77819 -97.7527 -7.88858 58 75 63
-2.77808 -97.7527 -7.84753 59 75 64
-2.77798 -97.7527 -7.80647 60 76 65
-2.77787 -97.7527 -7.76542 61 77 66
-2.77776 -97.7527 -7.72437 62 79 67
-2.63814 -92.8428 -7.2974 63 80 68
-2.63804 -92.8428 -7.25841 64 81 69
-2.77744 -97.7527 -7.60121 65 83 71
-2.77734 -97.7527 -7.56016 67 84 72
-2.77723 -97.7527 -7.51911 68 86 74
-2.77713 -97.7527 -7.47806 70 88 76
-2.77702 -97.7527 -7.437 71 90 77
-2.77691 -97.7527 -7.39595 73 91 79
-2.77681 -97.7527 -7.3549 75 93 81
-2.7767 -97.7527 -7.31385 77 95 83
-2.77659 -97.7527 -7.2728 79 97 85
-2.77649 -97.7527 -7.23174 80 99 87
-2.77638 -97.7527 -7.19069 82 101 88
-2.77628 -97.7527 -7.14964 84 103 90
-2.77617 -97.7527 -7.10859 85 105 92
-2.77606 -97.7527 -7.06754 87 106 93
-2.71079 -95.4581 -6.86154 88 108 95
-2.71069 -95.4581 -6.82145 89 109 96
-2.77574 -97.7527 -6.94438 90 110 97
-2.77564 -97.7527 -6.90333 90 111 98
-2.77553 -97.7527 -6.86227 91 112 98
-2.77543 -97.7527 -6.82122 91 112 99
-2.77532 -97.7527 -6.78017 90 112 99
-2.77521 -97.7527 -6.73912 90 111 98
-2.77511 -97.7527 -6.69807 90 111 98
-2.775 -97.7527 -6.65701 89 111 98
-2.77489 -97.7527 -6.61596 89 110 97
-2.77479 -97.7527 -6.57491 88 109 96
-2.77468 -97.7527 -6.53386 87 109 96
-2.77457 -97.7527 -6.49281 86 108 95
-2.77447 -97.7527 -6.45175 85 107 94
-2.77436 -97.7527 -6.4107 84 106 93
-2.92916 -103.211 -6.72531 83 105 91
-2.92905 -103.211 -6.68197 81 103 90
-3.00521 -105.899 -6.81151 80 102 89
-3.0051 -105.899 -6.76703 78 100 87
-3.00498 -105.899 -6.72256 76 98 85
-3.00487 -105.899 -6.67809 74 96 84
-3.00475 -105.899 -6.63361 73 95 83
-3.00464 -105.899 -6.58914 73 94 82
-3.00452 -105.899 -6.54467 72 93 82
-3.00441 -105.899 -6.5002 72 93 81
-3.00429 -105.899 -6.45572 72 93 81
-3.00418 -105.899 -6.41125 72 93 81
-3.00406 -105.899 -6.36678 73 93 81
-3.00395 -105.899 -6.3223 73 93 82
-3.00383 -105.899 -6.27783 73 93 82
-3.00372 -105.899 -6.23336 73 94 82
-3.0036 -105.899 -6.18888 73 94 82
-3.00349 -105.899 -6.14441 74 94 83
-3.00337 -105.899 -6.09994 74 94 83
-3.00326 -105.899 -6.05546 74 95 83
-3.00314 -105.899 -6.01099 74 95 83
-3.00303 -105.899 -5.96652 74 95 83
-3.00291 -105.899 -5.92204 73 94 82
-3.0028 -105.899 -5.87757 72 93 82
-3.00268 -105.899 -5.8331 71 92 81
-3.00257 -105.899 -5.78863 70 91 80
-3.00245 -105.899 -5.74415 70 90 79
-3.00234 -105.899 -5.69968 69 90 79
-3.00222 -105.899 -5.65521 69 90 78
-3.00211 -105.899 -5.61073 68 89 77
-3.00199 -105.899 -5.56626 66 88 76
-3.00187 -105.899 -5.52179 64 86 74
-3.00176 -105.899 -5.47731 62 83 71
-3.00164 -105.899 -5.43284 59 80 69
-2.57222 -91.5881 4.49404 102 119 106
-2.57212 -91.5881 4.5325 102 119 106
-2.58366 -92.0026 4.59165 102 119 106
-2.58356 -92.0026 4.63029 102 119 106
-2.63108 -93.6985 4.75499 103 120 106
-2.63098 -93.6985 4.79434 103 120 107
-2.99491 -106.441 -13.4638 27 37 30
-2.99479 -106.441 -13.4191 27 37 30
-2.97908 -105.887 -13.3047 27 37 30
-2.97897 -105.887 -13.2602 27 38 31
-2.74971 -97.7414 -12.1992 28 38 31
-2.7496 -97.7414 -12.1581 28 39 31
-2.7495 -97.7414 -12.117 29 39 32
-2.74939 -97.7414 -12.076 29 40 32
-2.74928 -97.7414 -12.0349 29 40 33
-2.74918 -97.7414 -11.9939 30 41 33
-2.68454 -95.447 -11.6723 30 41 34
-2.68443 -95.447 -11.6322 31 42 34
-2.68433 -95.447 -11.5921 31 43 35
-2.68423 -95.447 -11.552 32 43 36
-2.6752 -95.447 -8.0643 55 72 60
-2.67509 -95.447 -8.02421 55 72 60
-2.73929 -97.7414 -8.17604 56 72 60
-2.73919 -97.7414 -8.13499 56 73 61
-2.73908 -97.7414 -8.09394 56 73 61
-2.73897 -97.7414 -8.05289 56 73 61
-2.73887 -97.7414 -8.01184 57 73 62
-2.73876 -97.7414 -7.97078 57 74 62
-2.73866 -97.7414 -7.92973 57 74 62
-2.73855 -97.7414 -7.88868 58 75 63
-2.73844 -97.7414 -7.84763 59 75 64
-2.73834 -97.7414 -7.80658 60 76 65
-2.73823 -97.7414 -7.76552 61 78 66
-2.73812 -97.7414 -7.72447 62 79 67
-2.67374 -95.447 -7.50306 63 80 68
-2.67364 -95.447 -7.46297 64 81 69
-2.7378 -97.7414 -7.60131 65 83 71
-2.7377 -97.7414 -7.56026 67 84 72
-2.73759 -97.7414 -7.51921 68 86 74
-2.73749 -97.7414 -7.47816 70 88 75
-2.73738 -97.7414 -7.43711 71 90 77
-2.73727 -97.7414 -7.39605 73 91 79
-2.73717 -97.7414 -7.355 75 93 81
-2.73706 -97.7414 -7.31395 77 95 83
-2.73695 -97.7414 -7.2729 78 97 85
-2.73685 -97.7414 -7.23185 80 99 87
-2.73674 -97.7414 -7.19079 82 101 88
-2.73664 -97.7414 -7.14974 84 103 90
-2.73653 -97.7414 -7.10869 85 105 92
-2.73642 -97.7414 -7.06764 87 106 93
-2.59888 -92.832 -6.67365 88 108 95
-2.59878 -92.832 -6.63466 89 109 96
-2.7361 -97.7414 -6.94448 90 110 97
-2.736 -97.7414 -6.90343 90 111 98
-2.73589 -97.7414 -6.86238 91 112 98
-2.73579 -97.7414 -6.82132 91 112 99
-2.73568 -97.7414 -6.78027 90 112 99
-2.73557 -97.7414 -6.73922 90 111 98
-2.73547 -97.7414 -6.69817 90 111 98
-2.73536 -97.7414 -6.65712 89 111 98
-2.73525 -97.7414 -6.61606 88 110 97
-2.73515 -97.7414 -6.57501 88 109 96
-2.73504 -97.7414 -6.53396 87 109 96
-2.73494 -97.7414 -6.49291 86 108 95
-2.73483 -97.7414 -6.45186 85 107 94
-2.73472 -97.7414 -6.4108 84 106 93
-2.80197 -100.149 -6.52664 83 105 91
-2.80186 -100.149 -6.48458 81 103 90
-2.96227 -105.887 -6.81162 79 102 89
-2.96216 -105.887 -6.76714 77 100 87
-2.96204 -105.887 -6.72267 76 98 85
-2.96193 -105.887 -6.6782 74 96 84
-2.96181 -105.887 -6.63373 73 95 83
-2.9617 -105.887 -6.58925 72 94 82
-2.96158 -105.887 -6.54478 72 93 81
-2.96146 -105.887 -6.50031 72 93 81
-2.96135 -105.887 -6.45583 72 93 81
-2.96123 -105.887 -6.41136 72 93 81
-2.96112 -105.887 -6.36689 73 93 81
-2.961 -105.887 -6.32241 73 93 82
-2.96089 -105.887 -6.27794 73 93 82
-2.96077 -105.887 -6.23347 73 93 82
-2.96066 -105.887 -6.18899 73 94 82
-2.96054 -105.887 -6.14452 74 94 83
-2.96043 -105.887 -6.10005 74 94 83
-2.96031 -105.887 -6.05557 74 95 83
-2.9602 -105.887 -6.0111 74 95 83
-2.96008 -105.887 -5.96663 74 95 83
-2.95997 -105.887 -5.92216 73 94 82
-2.95985 -105.887 -5.87768 72 93 82
-2.95974 -105.887 -5.83321 71 92 81
-2.95962 -105.887 -5.78874 70 91 80
-2.95951 -105.887 -5.74426 70 90 79
-2.95939 -105.887 -5.69979 69 90 79
-2.95928 -105.887 -5.65532 69 90 78
-2.95916 -105.887 -5.61084 68 89 77
-2.95905 -105.887 -5.56637 66 88 76
-2.95893 -105.887 -5.5219 64 86 74
-2.95882 -105.887 -5.47742 62 83 71
-2.9587 -105.887 -5.43295 59 80 69
-3.01488 -108.705 -13.7519 27 37 30
-3.01476 -108.705 -13.7062 27 37 30
-2.93614 -105.874 -13.3048 27 37 30
-2.93602 -105.874 -13.2603 28 38 31
-2.71007 -97.7301 -12.1993 28 38 31
-2.70996 -97.7301 -12.1582 28 39 32
-2.70986 -97.7301 -12.1171 29 40 32
-2.70975 -97.7301 -12.0761 29 40 32
-2.70964 -97.7301 -12.035 30 41 33
-2.70954 -97.7301 -11.994 30 41 33
-2.69647 -97.2625 -11.8957 30 42 34
-2.69636 -97.2625 -11.8549 31 42 34
-2.69626 -97.2625 -11.814 31 43 35
-2.69615 -97.2625 -11.7732 32 44 36
-2.68695 -97.2625 -8.21874 55 72 60
-2.68684 -97.2625 -8.17788 55 72 60
-2.69965 -97.7301 -8.17615 56 72 60
-2.69955 -97.7301 -8.13509 56 73 61
-2.69944 -97.7301 -8.09404 56 73 61
-2.69933 -97.7301 -8.05299 56 73 61
-2.69923 -97.7301 -8.01194 57 74 62
-2.69912 -97.7301 -7.97089 57 74 62
-2.69902 -97.7301 -7.92983 57 74 62
-2.69891 -97.7301 -7.88878 58 75 63
-2.6988 -97.7301 -7.84773 59 75 64
-2.6987 -97.7301 -7.80668 60 76 65
-2.69859 -97.7301 -7.76563 61 78 66
-2.69848 -97.7301 -7.72457 62 79 67
-2.68547 -97.2625 -7.64676 63 80 68
-2.68536 -97.2625 -7.6059 64 81 69
-2.69817 -97.7301 -7.60142 65 83 71
-2.69806 -97.7301 -7.56036 67 84 72
-2.69795 -97.7301 -7.51931 68 86 74
-2.69785 -97.7301 -7.47826 70 88 75
-2.69774 -97.7301 -7.43721 71 90 77
-2.69763 -97.7301 -7.39616 73 91 79
-2.69753 -97.7301 -7.3551 75 93 81
-2.69742 -97.7301 -7.31405 77 95 83
-2.69731 -97.7301 -7.273 78 97 85
-2.69721 -97.7301 -7.23195 80 99 87
-2.6971 -97.7301 -7.1909 82 101 88
-2.697 -97.7301 -7.14984 84 103 90
-2.69689 -97.7301 -7.10879 85 105 92
-2.69678 -97.7301 -7.06774 87 106 93
-2.69646 -97.7301 -6.94458 90 110 97
-2.69636 -97.7301 -6.90353 90 111 98
-2.69625 -97.7301 -6.86248 90 111 98
-2.69615 -97.7301 -6.82143 90 112 99
-2.69604 -97.7301 -6.78037 90 112 99
-2.69593 -97.7301 -6.73932 90 111 98
-2.69583 -97.7301 -6.69827 89 111 98
-2.69572 -97.7301 -6.65722 89 111 98
-2.69561 -97.7301 -6.61617 88 110 97
-2.69551 -97.7301 -6.57511 88 109 96
-2.6954 -97.7301 -6.53406 87 109 95
-2.6953 -97.7301 -6.49301 86 108 95
-2.69519 -97.7301 -6.45196 85 107 94
-2.69508 -97.7301 -6.41091 84 106 92
-2.708 -98.2023 -6.40063 82 104 91
-2.70789 -98.2023 -6.35938 81 103 90
-2.91933 -105.874 -6.81173 79 101 88
-2.91921 -105.874 -6.76726 77 100 87
-2.9191 -105.874 -6.72278 75 98 85
-2.91898 -105.874 -6.67831 74 96 84
-2.91887 -105.874 -6.63384 73 94 83
-2.91875 -105.874 -6.58936 72 94 82
-2.91864 -105.874 -6.54489 72 93 81
-2.91852 -105.874 -6.50042 72 93 81
-2.91841 -105.874 -6.45594 72 92 81
-2.91829 -105.874 -6.41147 72 93 81
-2.91818 -105.874 -6.367 72 93 81
-2.91806 -105.874 -6.32252 73 93 81
-2.91795 -105.874 -6.27805 73 93 82
-2.91783 -105.874 -6.23358 73 93 82
-2.91772 -105.874 -6.1891 73 94 82
