ply
format ascii 1.0
comment author : Loiseau & Broux
comment object : 3d point Cloud
element vertex 1283
property float x
property float y
property float z
property uchar red
property uchar green
property uchar blue
end_header
-1.27239 -126.479 -16.5404 30 41 34
-1.12941 -114.981 -4.50953 81 102 88
-1.12928 -114.981 -4.46102 80 102 88
-1.12916 -114.981 -4.4125 80 101 88
-1.12903 -114.981 -4.36399 79 101 87
-1.12891 -114.981 -4.31548 78 100 87
-1.12878 -114.981 -4.26697 78 99 86
-1.12865 -114.981 -4.21845 77 99 86
-1.12853 -114.981 -4.16994 77 99 86
-1.1284 -114.981 -4.12143 77 99 86
-1.12828 -114.981 -4.07292 77 99 86
-1.24096 -126.479 -4.42684 77 99 86
-1.24083 -126.479 -4.37348 77 99 86
-1.24069 -126.479 -4.32012 77 99 86
-1.24055 -126.479 -4.26675 77 99 85
-1.24041 -126.479 -4.21339 77 98 85
-1.24027 -126.479 -4.16003 76 98 85
-1.24013 -126.479 -4.10666 76 97 84
-1.24 -126.479 -4.0533 75 97 84
-1.23986 -126.479 -3.99993 74 96 83
-1.23972 -126.479 -3.94657 74 95 82
-1.23958 -126.479 -3.89321 73 95 82
-1.23944 -126.479 -3.83984 72 94 81
-1.2393 -126.479 -3.78648 71 93 80
-1.23917 -126.479 -3.73312 70 92 79
-1.23903 -126.479 -3.67975 69 91 78
-1.23889 -126.479 -3.62639 68 90 77
-1.23875 -126.479 -3.57303 66 88 76
-1.23861 -126.479 -3.51966 65 87 74
-1.23847 -126.479 -3.4663 64 86 73
-1.23833 -126.479 -3.41293 62 84 72
-1.2382 -126.479 -3.35957 60 82 70
-1.23806 -126.479 -3.30621 59 80 69
-1.23792 -126.479 -3.25284 57 78 67
-1.23778 -126.479 -3.19948 55 76 65
-1.23764 -126.479 -3.14612 53 74 63
-1.2375 -126.479 -3.09275 51 72 61
-1.23737 -126.479 -3.03939 50 70 60
-1.23723 -126.479 -2.98602 49 69 58
-1.23709 -126.479 -2.93266 47 67 57
-1.23695 -126.479 -2.8793 46 66 56
-1.01637 -105.399 3.1593 18 21 16
-1.01625 -105.399 3.20377 18 21 16
-1.20469 -126.479 9.55443 90 107 94
-1.20455 -126.479 9.6078 89 106 93
-1.09492 -114.981 8.78287 88 105 92
-1.0948 -114.981 8.83139 87 104 91
-1.09467 -114.981 8.8799 85 102 89
-1.09454 -114.981 8.92841 83 100 88
-1.11987 -117.655 9.18569 82 98 86
-1.11974 -117.655 9.23533 80 97 84
-1.20358 -126.479 9.98134 79 95 83
-1.20344 -126.479 10.0347 77 93 81
-1.20331 -126.479 10.0881 76 91 79
-1.20317 -126.479 10.1414 74 90 78
-1.06764 -112.426 9.72612 58 74 63
-1.06751 -112.426 9.77356 57 73 63
-1.22131 -126.464 -16.7006 31 42 35
-1.22117 -126.464 -16.6473 30 42 34
-1.22103 -126.464 -16.5939 30 42 34
-1.22089 -126.464 -16.5405 30 42 34
-1.08259 -114.967 -4.50965 83 104 90
-1.08246 -114.967 -4.46114 83 104 90
-1.08234 -114.967 -4.41262 82 103 90
-1.08221 -114.967 -4.36411 81 103 89
-1.10725 -117.641 -4.41596 81 102 89
-1.10712 -117.641 -4.36632 80 102 88
-1.10699 -117.641 -4.31668 80 101 88
-1.10686 -117.641 -4.26704 80 101 88
-1.10673 -117.641 -4.2174 80 101 88
-1.1066 -117.641 -4.16776 80 101 88
-1.18946 -126.464 -4.42698 80 101 88
-1.18932 -126.464 -4.37361 80 101 88
-1.18918 -126.464 -4.32025 80 101 88
-1.18905 -126.464 -4.26689 79 101 87
-1.18891 -126.464 -4.21352 79 100 87
-1.18877 -126.464 -4.16016 78 100 86
-1.18863 -126.464 -4.10679 78 99 86
-1.18849 -126.464 -4.05343 77 99 85
-1.18835 -126.464 -4.00007 77 98 85
-1.18822 -126.464 -3.9467 76 98 84
-1.18808 -126.464 -3.89334 75 97 83
-1.18794 -126.464 -3.83998 74 96 83
-1.1878 -126.464 -3.78661 73 95 82
-1.18766 -126.464 -3.73325 72 94 81
-1.18752 -126.464 -3.67989 71 93 80
-1.18738 -126.464 -3.62652 70 92 79
-1.18725 -126.464 -3.57316 69 91 78
-1.18711 -126.464 -3.51979 67 89 77
-1.18697 -126.464 -3.46643 66 88 75
-1.18683 -126.464 -3.41307 65 87 74
-1.18669 -126.464 -3.3597 63 85 72
-1.18655 -126.464 -3.30634 61 83 71
-1.18642 -126.464 -3.25298 60 81 69
-1.18628 -126.464 -3.19961 58 79 67
-1.18614 -126.464 -3.14625 56 77 66
-1.186 -126.464 -3.09289 54 75 64
-1.18586 -126.464 -3.03952 53 74 63
-1.18572 -126.464 -2.98616 52 72 61
-1.18558 -126.464 -2.93279 51 71 60
-1.18545 -126.464 -2.87943 50 69 59
-0.97345 -105.387 3.15919 18 21 16
-0.973334 -105.387 3.20366 18 21 16
-1.0112 -109.969 5.05987 73 85 74
-1.01108 -109.969 5.10627 76 89 78
-1.15319 -126.464 9.5543 90 107 94
-1.15305 -126.464 9.60767 89 106 93
-1.0481 -114.967 8.78275 88 105 92
-1.04797 -114.967 8.83127 87 104 91
-1.04785 -114.967 8.87978 85 102 89
-1.04772 -114.967 8.92829 83 100 88
-1.0476 -114.967 8.9768 82 98 86
-1.04747 -114.967 9.02532 80 97 84
-1.12398 -123.38 9.73777 79 95 83
-1.12384 -123.38 9.78983 77 93 81
-1.1518 -126.464 10.0879 75 91 79
-1.15166 -126.464 10.1413 74 90 78
-1.15153 -126.464 10.1947 73 88 76
-1.15139 -126.464 10.248 71 87 75
-1.15125 -126.464 10.3014 69 85 73
-1.15111 -126.464 10.3548 68 83 72
-1.11331 -126.464 24.923 99 117 104
-1.11317 -126.464 24.9764 100 117 105
-1.1698 -126.449 -16.7008 31 42 35
-1.16966 -126.449 -16.6474 31 42 35
-1.16953 -126.449 -16.594 30 42 34
-1.16939 -126.449 -16.5407 30 42 34
-1.11041 -120.428 -14.4824 39 53 44
-1.11027 -120.428 -14.4316 41 54 45
-1.03577 -114.954 -4.50977 85 106 92
-1.03564 -114.954 -4.46126 85 106 92
-1.03551 -114.954 -4.41274 84 106 92
-1.03539 -114.954 -4.36423 84 105 91
-1.11101 -123.365 -4.6315 83 105 91
-1.11088 -123.365 -4.57944 83 104 90
-1.11074 -123.365 -4.52738 82 104 90
-1.11061 -123.365 -4.47532 82 103 90
-1.11047 -123.365 -4.42326 82 103 90
-1.11034 -123.365 -4.37119 82 103 90
-1.13796 -126.449 -4.42711 82 103 90
-1.13782 -126.449 -4.37375 82 103 90
-1.13768 -126.449 -4.32038 82 103 89
-1.13754 -126.449 -4.26702 81 103 89
-1.1374 -126.449 -4.21365 81 102 89
-1.13727 -126.449 -4.16029 80 102 88
-1.13713 -126.449 -4.10693 80 101 88
-1.13699 -126.449 -4.05356 79 101 87
-1.13685 -126.449 -4.0002 79 100 87
-1.13671 -126.449 -3.94684 78 100 86
-1.13657 -126.449 -3.89347 77 99 85
-1.13644 -126.449 -3.84011 76 98 84
-1.1363 -126.449 -3.78675 75 97 84
-1.13616 -126.449 -3.73338 74 96 83
-1.13602 -126.449 -3.68002 73 95 82
-1.13588 -126.449 -3.62665 72 94 81
-1.13574 -126.449 -3.57329 71 93 80
-1.1356 -126.449 -3.51993 70 92 79
-1.13547 -126.449 -3.46656 69 90 77
-1.13533 -126.449 -3.4132 67 89 76
-1.13519 -126.449 -3.35984 66 88 75
-1.13505 -126.449 -3.30647 64 86 73
-1.13491 -126.449 -3.25311 62 84 72
-1.13477 -126.449 -3.19975 61 82 70
-1.13464 -126.449 -3.14638 59 80 68
-1.1345 -126.449 -3.09302 58 79 67
-1.13436 -126.449 -3.03965 56 77 66
-1.13422 -126.449 -2.98629 55 76 64
-1.13408 -126.449 -2.93293 54 74 63
-1.13394 -126.449 -2.87956 53 73 62
-1.10168 -126.449 9.55417 90 107 94
-1.10154 -126.449 9.60753 89 106 93
-1.00128 -114.954 8.78263 88 105 92
-1.00115 -114.954 8.83115 86 104 91
-1.00103 -114.954 8.87966 85 102 89
-1.0009 -114.954 8.92817 83 100 88
-1.00078 -114.954 8.97668 82 98 86
-1.00065 -114.954 9.0252 80 97 84
-1.02379 -117.627 9.28472 78 95 83
-1.02366 -117.627 9.33436 77 93 81
-1.1003 -126.449 10.0878 75 91 79
-1.10016 -126.449 10.1412 74 90 78
-1.10002 -126.449 10.1945 72 88 76
-1.09988 -126.449 10.2479 70 86 75
-1.09975 -126.449 10.3013 69 84 73
-1.09961 -126.449 10.3546 67 83 71
-1.04606 -120.428 10.3189 58 74 63
-1.04593 -120.428 10.3698 56 73 61
-1.05347 -123.365 17.547 47 52 44
-1.05334 -123.365 17.599 48 54 46
-1.06181 -126.449 24.9229 101 120 107
-1.06167 -126.449 24.9763 102 120 107
-1.1183 -126.435 -16.7009 31 42 35
-1.11816 -126.435 -16.6475 31 42 35
-1.11802 -126.435 -16.5942 31 42 34
-1.11788 -126.435 -16.5408 30 42 34
-0.988945 -114.94 -4.50989 87 108 94
-0.988819 -114.94 -4.46138 87 108 94
-0.988693 -114.94 -4.41287 87 108 93
-0.988567 -114.94 -4.36435 86 107 93
-1.08729 -126.435 -4.74742 85 107 93
-1.08715 -126.435 -4.69406 85 106 92
-1.08701 -126.435 -4.6407 85 106 92
-1.08687 -126.435 -4.58733 84 106 92
-1.08673 -126.435 -4.53397 84 105 92
-1.08659 -126.435 -4.48061 84 105 91
-1.08646 -126.435 -4.42724 84 105 91
-1.08632 -126.435 -4.37388 84 105 91
-1.08618 -126.435 -4.32051 84 105 91
-1.08604 -126.435 -4.26715 83 105 91
-1.0859 -126.435 -4.21379 83 104 90
-1.08576 -126.435 -4.16042 82 104 90
-1.08562 -126.435 -4.10706 82 103 89
-1.08549 -126.435 -4.0537 81 103 89
-1.08535 -126.435 -4.00033 81 102 88
-1.08521 -126.435 -3.94697 80 102 88
-1.08507 -126.435 -3.89361 79 101 87
-1.08493 -126.435 -3.84024 78 100 86
-1.08479 -126.435 -3.78688 77 99 85
-1.08466 -126.435 -3.73351 76 98 85
-1.08452 -126.435 -3.68015 76 97 84
-1.08438 -126.435 -3.62679 74 96 83
-1.08424 -126.435 -3.57342 73 95 82
-1.0841 -126.435 -3.52006 72 94 81
-1.08396 -126.435 -3.4667 71 93 79
-1.08382 -126.435 -3.41333 70 92 78
-1.08369 -126.435 -3.35997 68 90 77
-1.08355 -126.435 -3.30661 67 89 76
-1.08341 -126.435 -3.25324 65 87 74
-1.08327 -126.435 -3.19988 64 85 73
-1.08313 -126.435 -3.14651 62 84 71
-1.08299 -126.435 -3.09315 61 82 70
-1.08286 -126.435 -3.03979 59 80 68
-1.08272 -126.435 -2.98642 58 79 67
-1.08258 -126.435 -2.93306 57 78 66
-1.08244 -126.435 -2.8797 56 77 65
-1.0823 -126.435 -2.82633 55 75 64
-1.08216 -126.435 -2.77297 54 74 63
-1.05018 -126.435 9.55404 90 107 94
-1.05004 -126.435 9.6074 89 106 93
-0.954457 -114.94 8.78251 88 105 92
-0.954332 -114.94 8.83102 86 104 91
-0.954206 -114.94 8.87954 85 102 89
-0.95408 -114.94 8.92805 83 100 88
-0.953954 -114.94 8.97656 81 98 86
-0.953828 -114.94 9.02507 80 97 84
-0.953702 -114.94 9.07359 78 95 83
-0.953576 -114.94 9.1221 77 93 81
-1.02322 -123.351 9.84163 75 91 79
-1.02308 -123.351 9.89369 73 89 78
-1.04852 -126.435 10.1944 72 88 76
-1.04838 -126.435 10.2478 70 86 74
-1.04824 -126.435 10.3011 68 84 73
-1.0481 -126.435 10.3545 67 82 71
-1.01031 -126.435 24.9228 103 122 110
-1.01017 -126.435 24.9761 104 123 110
-1.01003 -126.435 25.0295 104 123 110
-1.00989 -126.435 25.0829 104 123 111
-1.00975 -126.435 25.1362 104 123 111
-1.00961 -126.435 25.1896 104 123 111
-1.0668 -126.42 -16.701 31 42 35
-1.06666 -126.42 -16.6477 31 42 35
-1.06652 -126.42 -16.5943 31 42 35
-1.06638 -126.42 -16.5409 31 42 35
-0.942124 -114.927 -4.51001 89 110 95
-0.941998 -114.927 -4.4615 89 110 95
-0.941872 -114.927 -4.41299 89 109 95
-0.941746 -114.927 -4.36447 88 109 95
-1.03578 -126.42 -4.74756 88 109 94
-1.03564 -126.42 -4.69419 87 108 94
-1.03551 -126.42 -4.64083 87 108 94
-1.03537 -126.42 -4.58747 86 108 93
-1.03523 -126.42 -4.5341 86 107 93
-1.03509 -126.42 -4.48074 86 107 93
-1.03495 -126.42 -4.42738 86 107 93
-1.03481 -126.42 -4.37401 86 107 93
-1.03467 -126.42 -4.32065 86 107 93
-1.03454 -126.42 -4.26728 85 106 92
-1.0344 -126.42 -4.21392 85 106 92
-1.03426 -126.42 -4.16056 84 106 91
-1.03412 -126.42 -4.10719 84 105 91
-1.03398 -126.42 -4.05383 83 105 90
-1.03384 -126.42 -4.00047 82 104 90
-1.03371 -126.42 -3.9471 82 103 89
-1.03357 -126.42 -3.89374 81 103 89
-1.03343 -126.42 -3.84037 80 102 88
-1.03329 -126.42 -3.78701 79 101 87
-1.03315 -126.42 -3.73365 79 100 86
-1.03301 -126.42 -3.68028 78 99 85
-1.03287 -126.42 -3.62692 77 98 85
-1.03274 -126.42 -3.57356 76 97 84
-1.0326 -126.42 -3.52019 75 96 83
-1.03246 -126.42 -3.46683 73 95 82
-1.03232 -126.42 -3.41347 72 94 80
-1.03218 -126.42 -3.3601 71 93 79
-1.03204 -126.42 -3.30674 70 91 78
-1.03191 -126.42 -3.25337 68 90 77
-1.03177 -126.42 -3.20001 67 88 75
-1.03163 -126.42 -3.14665 65 87 74
-1.03149 -126.42 -3.09328 64 85 72
-1.03135 -126.42 -3.03992 63 84 71
-1.03121 -126.42 -2.98656 61 82 70
-1.03108 -126.42 -2.93319 60 81 69
-1.03094 -126.42 -2.87983 60 80 68
-1.0308 -126.42 -2.82647 59 79 67
-1.03066 -126.42 -2.7731 58 78 66
-0.897066 -112.373 4.88735 49 56 49
-0.896943 -112.373 4.93478 52 60 52
-0.876842 -109.93 5.05952 71 82 72
-0.876722 -109.93 5.10592 74 87 76
-0.876601 -109.93 5.15233 77 91 79
-0.876481 -109.93 5.19873 81 95 83
-0.895835 -112.373 5.36169 84 98 86
-0.895712 -112.373 5.40912 86 102 89
-0.998677 -126.42 9.5539 90 107 94
-0.998538 -126.42 9.60727 89 106 93
-0.907636 -114.927 8.78239 88 105 92
-0.90751 -114.927 8.8309 87 104 91
-0.907384 -114.927 8.87942 85 102 89
-0.907259 -114.927 8.92793 83 100 88
-0.907133 -114.927 8.97644 82 99 86
-0.907007 -114.927 9.02495 80 97 84
-0.906881 -114.927 9.07347 78 95 83
-0.906755 -114.927 9.12198 77 93 81
-0.927714 -117.6 9.38376 75 91 79
-0.927585 -117.6 9.4334 73 89 78
-0.997015 -126.42 10.1943 71 88 76
-0.996877 -126.42 10.2476 70 86 74
-0.996738 -126.42 10.301 68 84 73
-0.9966 -126.42 10.3544 66 82 71
-0.958802 -126.42 24.9226 105 125 112
-0.958664 -126.42 24.976 105 125 112
-0.958525 -126.42 25.0294 105 125 112
-0.958387 -126.42 25.0827 105 125 112
-0.958248 -126.42 25.1361 105 125 112
-0.95811 -126.42 25.1895 105 124 112
-0.828771 -105.337 -7.24717 96 114 102
-0.828655 -105.337 -7.2027 96 115 102
-0.82854 -105.337 -7.15823 96 115 103
-0.828424 -105.337 -7.11376 97 115 103
-0.828309 -105.337 -7.06929 97 115 103
-0.828194 -105.337 -7.02482 97 115 103
-0.875407 -112.36 -4.40991 91 111 97
-0.875284 -112.36 -4.36247 91 111 97
-0.895051 -114.914 -4.41311 90 111 97
-0.894925 -114.914 -4.36459 90 111 96
-0.960272 -123.322 -4.63189 89 110 96
-0.960137 -123.322 -4.57983 89 110 96
-0.960002 -123.322 -4.52777 89 110 95
-0.959867 -123.322 -4.47571 88 109 95
-0.983725 -126.405 -4.53424 88 109 95
-0.983587 -126.405 -4.48087 88 109 95
-0.983448 -126.405 -4.42751 88 109 95
-0.98331 -126.405 -4.37414 88 109 94
-0.983172 -126.405 -4.32078 87 108 94
-0.983033 -126.405 -4.26742 87 108 94
-0.982895 -126.405 -4.21405 86 108 93
-0.982756 -126.405 -4.16069 86 107 93
-0.982618 -126.405 -4.10733 85 107 92
-0.982479 -126.405 -4.05396 85 106 92
-0.982341 -126.405 -4.0006 84 106 91
-0.982202 -126.405 -3.94724 84 105 91
-0.982064 -126.405 -3.89387 83 104 90
-0.981925 -126.405 -3.84051 82 104 89
-0.981787 -126.405 -3.78714 81 103 89
-0.981649 -126.405 -3.73378 81 102 88
-0.98151 -126.405 -3.68042 80 101 87
-0.981372 -126.405 -3.62705 79 100 86
-0.981233 -126.405 -3.57369 78 99 85
-0.981095 -126.405 -3.52033 77 98 84
-0.980956 -126.405 -3.46696 76 97 83
-0.980818 -126.405 -3.4136 75 96 82
-0.980679 -126.405 -3.36023 73 95 81
-0.980541 -126.405 -3.30687 72 94 80
-0.980402 -126.405 -3.25351 71 92 79
-0.980264 -126.405 -3.20014 69 91 78
-0.980126 -126.405 -3.14678 68 90 76
-0.979987 -126.405 -3.09342 67 88 75
-0.979849 -126.405 -3.04005 66 87 74
-0.97971 -126.405 -2.98669 65 86 73
-0.979572 -126.405 -2.93333 64 85 72
-0.979433 -126.405 -2.87996 63 83 71
-0.979295 -126.405 -2.8266 62 82 70
-0.979156 -126.405 -2.77323 61 81 69
-0.947173 -126.405 9.55377 90 107 94
-0.947035 -126.405 9.60713 89 107 93
-0.860815 -114.914 8.78227 88 106 93
-0.860689 -114.914 8.83078 87 104 91
-0.860563 -114.914 8.8793 85 102 90
-0.860437 -114.914 8.92781 83 101 88
-0.860312 -114.914 8.97632 82 99 86
-0.860186 -114.914 9.02483 80 97 85
-0.86006 -114.914 9.07335 78 95 83
-0.859934 -114.914 9.12186 77 93 81
-0.859808 -114.914 9.17037 75 91 79
-0.859682 -114.914 9.21888 73 89 78
-0.922451 -123.322 9.9455 71 88 76
-0.922316 -123.322 9.99756 69 86 74
-0.922181 -123.322 10.0496 68 84 72
-0.922046 -123.322 10.1017 66 82 71
-0.907299 -126.405 24.9225 107 127 114
-0.90716 -126.405 24.9759 107 126 114
-0.907022 -126.405 25.0292 106 126 114
-0.906883 -126.405 25.0826 106 126 114
-0.884629 -123.322 24.5229 106 125 113
-0.884494 -123.322 24.5749 106 125 113
-0.905637 -126.405 25.5629 104 122 110
-0.905499 -126.405 25.6162 104 121 110
-0.90536 -126.405 25.6696 104 121 110
-0.905222 -126.405 25.723 104 121 110
-0.905083 -126.405 25.7763 104 121 110
-0.904945 -126.405 25.8297 104 121 110
-0.904807 -126.405 25.883 105 121 110
-0.904668 -126.405 25.9364 105 122 111
-0.90453 -126.405 25.9898 106 122 112
-0.904391 -126.405 26.0431 107 123 113
-0.785851 -105.325 -7.24728 96 114 102
-0.785736 -105.325 -7.20281 96 114 102
-0.78562 -105.325 -7.15834 96 115 103
-0.785505 -105.325 -7.11387 97 115 103
-0.78539 -105.325 -7.0694 97 115 103
-0.785274 -105.325 -7.02493 97 115 103
-0.794323 -107.566 -4.22236 92 113 98
-0.794205 -107.566 -4.17695 92 113 98
-0.84823 -114.9 -4.41323 92 113 98
-0.848104 -114.9 -4.36471 92 112 98
-0.867698 -117.572 -4.41658 91 112 98
-0.86757 -117.572 -4.36694 91 112 97
-0.867441 -117.572 -4.3173 90 111 97
-0.867312 -117.572 -4.26766 90 111 97
-0.932222 -126.39 -4.53437 90 111 96
-0.932084 -126.39 -4.481 90 111 96
-0.931945 -126.39 -4.42764 90 110 96
-0.931807 -126.39 -4.37428 89 110 96
-0.931668 -126.39 -4.32091 89 110 95
-0.93153 -126.39 -4.26755 89 110 95
-0.931391 -126.39 -4.21419 88 109 95
-0.931253 -126.39 -4.16082 88 109 94
-0.931114 -126.39 -4.10746 87 108 94
-0.930976 -126.39 -4.0541 87 108 93
-0.930837 -126.39 -4.00073 86 107 93
-0.930699 -126.39 -3.94737 85 107 92
-0.930561 -126.39 -3.894 85 106 92
-0.930422 -126.39 -3.84064 84 105 91
-0.930284 -126.39 -3.78728 83 105 90
-0.930145 -126.39 -3.73391 82 104 90
-0.930007 -126.39 -3.68055 82 103 89
-0.929868 -126.39 -3.62719 81 102 88
-0.92973 -126.39 -3.57382 80 101 87
-0.929591 -126.39 -3.52046 79 101 86
-0.929453 -126.39 -3.4671 78 100 85
-0.929314 -126.39 -3.41373 77 99 84
-0.929176 -126.39 -3.36037 76 97 83
-0.929038 -126.39 -3.307 75 96 82
-0.928899 -126.39 -3.25364 73 95 81
-0.928761 -126.39 -3.20028 72 94 80
-0.928622 -126.39 -3.14691 71 92 79
-0.928484 -126.39 -3.09355 70 91 78
-0.928345 -126.39 -3.04019 69 90 77
-0.928207 -126.39 -2.98682 68 89 76
-0.928068 -126.39 -2.93346 67 88 75
-0.92793 -126.39 -2.88009 66 87 74
-0.927791 -126.39 -2.82673 65 86 73
-0.927653 -126.39 -2.77337 64 85 72
-0.89567 -126.39 9.55364 90 107 94
-0.895532 -126.39 9.607 89 107 94
-0.813994 -114.9 8.78215 88 106 93
-0.813868 -114.9 8.83066 87 104 91
-0.813742 -114.9 8.87917 85 102 90
-0.813616 -114.9 8.92769 83 101 88
-0.81349 -114.9 8.9762 82 99 87
-0.813365 -114.9 9.02471 80 97 85
-0.813239 -114.9 9.07322 78 95 83
-0.813113 -114.9 9.12174 77 93 81
-0.812987 -114.9 9.17025 75 91 80
-0.812861 -114.9 9.21876 73 89 78
-0.831636 -117.572 9.48279 71 87 76
-0.831507 -117.572 9.53243 69 85 74
-0.831378 -117.572 9.58207 67 83 72
-0.83125 -117.572 9.63171 65 81 70
-0.840866 -123.307 22.0238 105 125 115
-0.840731 -123.307 22.0758 104 124 115
-0.840596 -123.307 22.1279 103 123 114
-0.84046 -123.307 22.18 103 122 113
-0.840325 -123.307 22.232 102 121 112
-0.84019 -123.307 22.2841 101 121 111
-0.819263 -120.372 22.1093 97 116 108
-0.819131 -120.372 22.1601 97 115 107
-0.855795 -126.39 24.9224 108 128 116
-0.855657 -126.39 24.9757 107 128 116
-0.855518 -126.39 25.0291 107 127 115
-0.85538 -126.39 25.0825 106 126 114
-0.795574 -117.572 23.3822 106 126 114
-0.795445 -117.572 23.4318 105 125 113
-0.814252 -120.372 24.0405 105 124 113
-0.81412 -120.372 24.0913 104 124 112
-0.813988 -120.372 24.1422 104 123 111
-0.813856 -120.372 24.193 103 122 111
-0.854134 -126.39 25.5627 102 120 109
-0.853995 -126.39 25.6161 102 119 108
-0.853857 -126.39 25.6695 102 119 108
-0.853719 -126.39 25.7228 101 119 108
-0.85358 -126.39 25.7762 101 118 107
-0.853442 -126.39 25.8296 102 118 107
-0.853303 -126.39 25.8829 102 118 108
-0.853165 -126.39 25.9363 102 119 108
-0.853026 -126.39 25.9896 103 119 109
-0.852888 -126.39 26.043 104 120 110
-0.743393 -105.313 -7.42527 93 111 99
-0.743278 -105.313 -7.3808 94 112 100
-0.743163 -105.313 -7.33633 94 113 101
-0.743047 -105.313 -7.29186 95 113 101
-0.742932 -105.313 -7.24739 96 114 102
-0.742816 -105.313 -7.20292 96 114 102
-0.742701 -105.313 -7.15845 96 115 103
-0.742586 -105.313 -7.11398 97 115 103
-0.74247 -105.313 -7.06951 97 115 103
-0.742355 -105.313 -7.02504 97 115 103
-0.734855 -105.313 -4.13451 93 114 99
-0.73474 -105.313 -4.09004 93 114 100
-0.801409 -114.887 -4.41335 93 114 99
-0.801283 -114.887 -4.36484 93 114 99
-0.801157 -114.887 -4.31632 93 113 99
-0.801031 -114.887 -4.26781 92 113 99
-0.800905 -114.887 -4.2193 92 113 98
-0.800779 -114.887 -4.17079 92 112 98
-0.859238 -123.293 -4.4239 91 112 98
-0.859103 -123.293 -4.37184 91 112 98
-0.858968 -123.293 -4.31978 91 112 97
-0.858833 -123.293 -4.26772 91 112 97
-0.858697 -123.293 -4.21566 90 111 97
-0.858562 -123.293 -4.16359 90 111 96
-0.858427 -123.293 -4.11153 90 111 96
-0.858292 -123.293 -4.05947 89 110 96
-0.879611 -126.375 -4.10759 89 110 95
-0.879473 -126.375 -4.05423 88 109 95
-0.879334 -126.375 -4.00086 88 109 94
-0.879196 -126.375 -3.9475 87 108 94
-0.879057 -126.375 -3.89414 86 108 93
-0.878919 -126.375 -3.84077 86 107 92
-0.87878 -126.375 -3.78741 85 106 92
-0.878642 -126.375 -3.73405 84 106 91
-0.878503 -126.375 -3.68068 83 105 90
-0.878365 -126.375 -3.62732 83 104 90
-0.878227 -126.375 -3.57396 82 103 89
-0.878088 -126.375 -3.52059 81 102 88
-0.87795 -126.375 -3.46723 80 102 87
-0.877811 -126.375 -3.41386 79 101 86
-0.877673 -126.375 -3.3605 78 100 85
-0.877534 -126.375 -3.30714 77 99 84
-0.877396 -126.375 -3.25377 76 97 83
-0.877257 -126.375 -3.20041 75 96 82
-0.877119 -126.375 -3.14705 74 95 81
-0.87698 -126.375 -3.09368 73 94 80
-0.876842 -126.375 -3.04032 72 93 79
-0.876704 -126.375 -2.98695 71 92 78
-0.876565 -126.375 -2.93359 70 91 77
-0.876427 -126.375 -2.88023 69 90 77
-0.876288 -126.375 -2.82686 68 89 76
-0.87615 -126.375 -2.7735 67 88 75
-0.79506 -117.558 5.11429 47 54 47
-0.794931 -117.558 5.16394 50 58 50
-0.794802 -117.558 5.21358 54 62 54
-0.794673 -117.558 5.26322 57 67 58
-0.794545 -117.558 5.31286 61 71 62
-0.794416 -117.558 5.3625 65 76 66
-0.823577 -123.293 9.32049 90 107 94
-0.823442 -123.293 9.37255 89 106 94
-0.767173 -114.887 8.78203 88 106 93
-0.767047 -114.887 8.83054 87 104 91
-0.749878 -112.334 8.68174 85 102 90
-0.749755 -112.334 8.72918 83 101 88
-0.766669 -114.887 8.97608 82 99 87
-0.766543 -114.887 9.02459 80 97 85
-0.749386 -112.334 8.87148 78 95 83
-0.749263 -112.334 8.91891 76 93 82
-0.766166 -114.887 9.17013 74 91 80
-0.76604 -114.887 9.21864 73 89 78
-0.765914 -114.887 9.26715 71 87 76
-0.765788 -114.887 9.31567 69 85 74
-0.765662 -114.887 9.36418 67 83 72
-0.765536 -114.887 9.41269 65 81 70
-0.748401 -112.334 9.25095 63 79 68
-0.748278 -112.334 9.29839 61 77 66
-0.791159 -123.293 21.8154 109 129 120
-0.791024 -123.293 21.8675 109 128 119
-0.790889 -123.293 21.9195 108 128 119
-0.790754 -123.293 21.9716 107 127 118
-0.736713 -114.887 20.522 107 127 117
-0.736587 -114.887 20.5705 106 126 117
-0.736461 -114.887 20.6191 106 125 116
-0.736335 -114.887 20.6676 105 125 115
-0.736209 -114.887 20.7161 104 124 114
-0.736083 -114.887 20.7646 104 123 114
-0.789808 -123.293 22.336 103 122 113
-0.789673 -123.293 22.3881 102 122 113
-0.809276 -126.375 23.0011 102 121 112
-0.809138 -126.375 23.0545 101 120 112
-0.789268 -123.293 22.5443 101 120 111
-0.789133 -123.293 22.5963 100 119 111
-0.735202 -114.887 21.1042 100 119 110
-0.735076 -114.887 21.1527 100 118 110
-0.788727 -123.293 22.7525 99 118 109
-0.788592 -123.293 22.8046 99 118 109
-0.807338 -126.375 23.7482 100 117 108
-0.8072 -126.375 23.8016 100 118 108
-0.787377 -123.293 23.2731 100 118 108
-0.787242 -123.293 23.3252 100 118 108
-0.785215 -123.293 24.1061 109 129 118
-0.78508 -123.293 24.1582 109 129 118
-0.804292 -126.375 24.9222 108 128 117
-0.804154 -126.375 24.9756 107 128 116
-0.784405 -123.293 24.4185 107 127 115
-0.78427 -123.293 24.4706 106 126 114
-0.730671 -114.887 22.8506 105 125 113
-0.730545 -114.887 22.8991 104 124 112
-0.730419 -114.887 22.9477 103 123 111
-0.730294 -114.887 22.9962 103 122 110
-0.730168 -114.887 23.0447 102 121 109
-0.730042 -114.887 23.0932 101 120 109
-0.783324 -123.293 24.835 100 119 108
-0.783189 -123.293 24.8871 100 118 107
-0.783054 -123.293 24.9391 99 117 106
-0.782919 -123.293 24.9912 99 116 105
-0.782784 -123.293 25.0432 98 116 105
-0.782649 -123.293 25.0953 98 115 104
-0.802077 -126.375 25.7761 98 115 104
-0.801938 -126.375 25.8294 98 115 104
-0.8018 -126.375 25.8828 98 115 104
-0.801661 -126.375 25.9361 99 115 104
-0.801523 -126.375 25.9895 100 115 105
-0.801385 -126.375 26.0429 100 116 106
-0.700474 -105.3 -7.42538 93 111 99
-0.700358 -105.3 -7.38091 94 112 100
-0.700243 -105.3 -7.33644 94 113 101
-0.700128 -105.3 -7.29197 95 113 101
-0.700012 -105.3 -7.2475 96 114 102
-0.699897 -105.3 -7.20303 96 114 102
-0.699782 -105.3 -7.15856 96 115 102
-0.699666 -105.3 -7.11409 97 115 103
-0.699551 -105.3 -7.06962 97 115 103
-0.699435 -105.3 -7.02515 97 115 103
-0.691936 -105.3 -4.13462 94 114 100
-0.69182 -105.3 -4.09015 94 115 100
-0.754587 -114.873 -4.41347 94 115 100
-0.754462 -114.873 -4.36496 94 115 100
-0.754336 -114.873 -4.31644 94 114 100
-0.75421 -114.873 -4.26793 93 114 100
-0.754084 -114.873 -4.21942 93 114 100
-0.753958 -114.873 -4.17091 93 114 99
-0.771363 -117.545 -4.21826 93 114 99
-0.771234 -117.545 -4.16862 93 113 99
-0.771106 -117.545 -4.11898 92 113 99
-0.770977 -117.545 -4.06934 92 113 98
-0.770848 -117.545 -4.0197 92 113 98
-0.770719 -117.545 -3.97006 91 112 98
-0.77059 -117.545 -3.92042 91 112 97
-0.770462 -117.545 -3.87078 90 112 97
-0.828108 -126.361 -4.10772 90 111 96
-0.827969 -126.361 -4.05436 90 111 96
-0.827831 -126.361 -4.001 89 110 95
-0.827692 -126.361 -3.94763 88 110 95
-0.827554 -126.361 -3.89427 88 109 94
-0.827415 -126.361 -3.84091 87 108 94
-0.827277 -126.361 -3.78754 87 108 93
-0.827139 -126.361 -3.73418 86 107 92
-0.827 -126.361 -3.68082 85 106 92
-0.826862 -126.361 -3.62745 84 106 91
-0.826723 -126.361 -3.57409 84 105 90
-0.826585 -126.361 -3.52072 83 104 90
-0.826446 -126.361 -3.46736 82 103 89
-0.826308 -126.361 -3.414 81 102 88
-0.826169 -126.361 -3.36063 80 102 87
-0.826031 -126.361 -3.30727 79 101 86
-0.825892 -126.361 -3.25391 78 100 85
-0.825754 -126.361 -3.20054 77 99 84
-0.825616 -126.361 -3.14718 76 98 84
-0.825477 -126.361 -3.09382 75 97 83
-0.825339 -126.361 -3.04045 75 96 82
-0.8252 -126.361 -2.98709 74 95 81
-0.825062 -126.361 -2.93372 73 94 80
-0.824923 -126.361 -2.88036 72 93 79
-0.824785 -126.361 -2.827 71 92 78
-0.824646 -126.361 -2.77363 70 91 78
-0.737361 -117.545 8.88686 89 107 94
-0.737233 -117.545 8.9365 89 106 94
-0.720351 -114.873 8.78191 88 105 93
-0.720226 -114.873 8.83042 86 104 92
-0.674136 -107.541 8.31219 85 102 90
-0.674018 -107.541 8.35761 83 101 89
-0.719848 -114.873 8.97596 81 99 87
-0.719722 -114.873 9.02447 80 97 85
-0.673665 -107.541 8.49386 78 95 83
-0.673547 -107.541 8.53927 76 93 82
-0.719345 -114.873 9.17001 74 91 80
-0.719219 -114.873 9.21852 72 89 78
-0.719093 -114.873 9.26703 70 87 76
-0.718967 -114.873 9.31554 68 85 74
-0.718841 -114.873 9.36406 66 82 72
-0.718715 -114.873 9.41257 64 80 70
-0.672722 -107.541 8.85718 62 78 67
-0.672604 -107.541 8.9026 60 76 66
-0.724326 -120.343 20.8893 111 130 122
-0.724194 -120.343 20.9401 111 130 122
-0.724062 -120.343 20.9909 111 130 122
-0.72393 -120.343 21.0417 111 131 123
-0.723798 -120.343 21.0926 111 131 123
-0.723667 -120.343 21.1434 111 131 122
-0.706451 -117.545 20.8006 110 130 121
-0.706322 -117.545 20.8502 110 130 121
-0.706193 -117.545 20.8999 109 129 120
-0.706064 -117.545 20.9495 109 129 120
-0.689892 -114.873 20.5219 108 128 119
-0.689766 -114.873 20.5704 108 128 118
-0.68964 -114.873 20.6189 107 127 118
-0.689514 -114.873 20.6675 107 127 117
-0.689388 -114.873 20.716 106 126 116
-0.689262 -114.873 20.7645 106 125 116
-0.705163 -117.545 21.297 105 124 115
-0.705034 -117.545 21.3467 105 124 115
-0.757773 -126.361 23.001 104 123 114
-0.757635 -126.361 23.0544 104 123 114
-0.704648 -117.545 21.4956 103 122 114
-0.704519 -117.545 21.5452 103 122 113
-0.688381 -114.873 21.1041 102 121 113
-0.688255 -114.873 21.1526 102 121 112
-0.704132 -117.545 21.6941 102 121 112
-0.704004 -117.545 21.7438 102 120 112
-0.720634 -120.343 22.3123 102 120 111
-0.720502 -120.343 22.3631 102 120 111
-0.755835 -126.361 23.7481 102 120 111
-0.755696 -126.361 23.8015 102 120 111
-0.702844 -117.545 22.1905 102 121 111
-0.702716 -117.545 22.2402 102 121 111
-0.736859 -123.279 23.3771 103 121 111
-0.736724 -123.279 23.4292 103 121 111
-0.719051 -120.343 22.9222 103 121 111
-0.71892 -120.343 22.973 103 122 111
-0.718788 -120.343 23.0238 104 122 112
-0.718656 -120.343 23.0746 104 123 112
-0.718524 -120.343 23.1255 105 124 113
-0.718392 -120.343 23.1763 106 124 114
-0.700784 -117.545 22.9848 110 130 119
-0.700655 -117.545 23.0344 110 130 119
-0.752789 -126.361 24.9221 108 128 117
-0.75265 -126.361 24.9755 107 127 116
-0.700011 -117.545 23.2826 106 126 114
-0.699882 -117.545 23.3323 105 125 113
-0.68385 -114.873 22.8505 104 123 112
-0.683724 -114.873 22.899 102 122 111
-0.683598 -114.873 22.9475 101 121 109
-0.683472 -114.873 22.996 100 119 108
-0.683346 -114.873 23.0446 99 118 107
-0.683221 -114.873 23.0931 98 117 106
-0.698981 -117.545 23.6798 98 116 105
-0.698852 -117.545 23.7294 97 114 104
-0.698723 -117.545 23.779 96 113 103
-0.698594 -117.545 23.8287 96 113 102
-0.698465 -117.545 23.8783 95 112 101
-0.698337 -117.545 23.928 95 111 101
-0.750573 -126.361 25.7759 95 111 101
-0.750435 -126.361 25.8293 95 111 101
-0.750297 -126.361 25.8827 95 111 101
-0.750158 -126.361 25.936 96 111 101
-0.75002 -126.361 25.9894 96 112 102
-0.749881 -126.361 26.0427 97 113 103
-0.657324 -105.288 -7.33655 94 113 101
-0.657208 -105.288 -7.29208 95 113 101
-0.657093 -105.288 -7.24761 96 114 102
-0.656978 -105.288 -7.20314 96 114 102
-0.656862 -105.288 -7.15867 96 115 102
-0.656747 -105.288 -7.1142 97 115 103
-0.656631 -105.288 -7.06973 97 115 103
-0.656516 -105.288 -7.02526 97 115 103
-0.649247 -105.288 -4.22367 94 113 99
-0.649132 -105.288 -4.1792 94 114 100
-0.649016 -105.288 -4.13473 95 115 101
-0.648901 -105.288 -4.09026 95 115 101
-0.707766 -114.86 -4.41359 95 115 101
-0.70764 -114.86 -4.36508 94 115 101
-0.707514 -114.86 -4.31656 94 115 101
-0.707389 -114.86 -4.26805 94 115 101
-0.707263 -114.86 -4.21954 94 115 100
-0.707137 -114.86 -4.17103 94 115 100
-0.707011 -114.86 -4.12252 94 114 100
-0.706885 -114.86 -4.074 93 114 100
-0.706759 -114.86 -4.02549 93 114 100
-0.706633 -114.86 -3.97698 93 114 99
-0.706508 -114.86 -3.92847 93 114 99
-0.706382 -114.86 -3.87995 92 113 99
-0.72268 -117.531 -3.92054 92 113 98
-0.722552 -117.531 -3.8709 92 113 98
-0.776604 -126.346 -4.10786 91 112 98
-0.776466 -126.346 -4.05449 91 112 97
-0.776328 -126.346 -4.00113 90 111 97
-0.776189 -126.346 -3.94777 90 111 96
-0.776051 -126.346 -3.8944 89 110 96
-0.775912 -126.346 -3.84104 89 110 95
-0.775774 -126.346 -3.78768 88 109 94
-0.775635 -126.346 -3.73431 87 108 94
-0.775497 -126.346 -3.68095 87 108 93
-0.775358 -126.346 -3.62758 86 107 92
-0.77522 -126.346 -3.57422 85 107 92
-0.775081 -126.346 -3.52086 85 106 91
-0.774943 -126.346 -3.46749 84 105 90
-0.774805 -126.346 -3.41413 83 104 90
-0.774666 -126.346 -3.36077 82 103 89
-0.774528 -126.346 -3.3074 81 103 88
-0.774389 -126.346 -3.25404 81 102 87
-0.774251 -126.346 -3.20068 80 101 86
-0.774112 -126.346 -3.14731 79 100 86
-0.773974 -126.346 -3.09395 78 99 85
-0.773835 -126.346 -3.04058 77 98 84
-0.773697 -126.346 -2.98722 76 97 83
-0.773558 -126.346 -2.93386 76 96 82
-0.77342 -126.346 -2.88049 75 96 82
-0.773282 -126.346 -2.82713 74 95 81
-0.773143 -126.346 -2.77377 73 94 80
-0.773005 -126.346 -2.7204 72 93 79
-0.772866 -126.346 -2.66704 72 92 79
-0.658809 -112.307 8.49177 89 107 94
-0.658686 -112.307 8.5392 88 106 94
-0.658563 -112.307 8.58664 88 105 93
-0.65844 -112.307 8.63407 86 104 92
-0.617172 -105.288 8.13891 84 102 90
-0.617057 -105.288 8.18338 83 100 89
-0.658071 -112.307 8.77637 81 99 87
-0.657948 -112.307 8.82381 79 97 85
-0.61671 -105.288 8.31679 78 95 84
-0.616595 -105.288 8.36126 76 93 82
-0.657578 -112.307 8.96611 74 91 80
-0.657455 -112.307 9.01355 72 89 78
-0.672272 -114.86 9.26691 70 87 76
-0.672146 -114.86 9.31542 68 84 74
-0.657086 -112.307 9.15585 65 82 71
-0.656963 -112.307 9.20328 63 80 69
-0.60322 -103.139 8.49556 61 77 67
-0.603107 -103.139 8.53912 59 76 65
-0.567402 -99.0948 12.85 65 77 74
-0.567294 -99.0948 12.8919 63 75 72
-0.599404 -105.288 14.9872 55 62 54
-0.599288 -105.288 15.0317 58 65 56
-0.692015 -123.264 21.2945 112 131 123
-0.69188 -123.264 21.3466 112 131 123
-0.644581 -114.86 19.9396 112 131 123
-0.644455 -114.86 19.9882 112 131 123
-0.644329 -114.86 20.0367 112 131 123
-0.644203 -114.86 20.0852 112 132 123
-0.644077 -114.86 20.1337 112 132 123
-0.643951 -114.86 20.1822 112 132 123
-0.690935 -123.264 21.711 112 131 123
-0.6908 -123.264 21.7631 111 131 123
-0.643574 -114.86 20.3277 111 131 122
-0.643448 -114.86 20.3763 111 131 122
-0.643322 -114.86 20.4248 111 130 121
-0.643196 -114.86 20.4733 110 130 121
-0.64307 -114.86 20.5218 110 130 120
-0.642944 -114.86 20.5703 109 129 120
-0.642819 -114.86 20.6188 109 129 119
-0.642693 -114.86 20.6673 108 128 119
-0.642567 -114.86 20.7158 108 128 118
-0.642441 -114.86 20.7644 107 127 118
-0.642315 -114.86 20.8129 107 126 117
-0.642189 -114.86 20.8614 106 126 117
-0.689044 -123.264 22.4399 106 125 116
-0.688909 -123.264 22.4919 106 125 116
-0.641812 -114.86 21.0069 105 124 116
-0.641686 -114.86 21.0554 105 124 115
-0.64156 -114.86 21.1039 105 124 115
-0.641434 -114.86 21.1525 105 123 115
-0.641308 -114.86 21.201 104 123 114
-0.641182 -114.86 21.2495 104 123 114
-0.641056 -114.86 21.298 104 123 114
-0.640931 -114.86 21.3465 104 123 114
-0.687693 -123.264 22.9605 104 123 113
-0.687558 -123.264 23.0126 104 123 113
-0.687423 -123.264 23.0646 104 123 113
-0.687288 -123.264 23.1167 104 123 113
-0.687153 -123.264 23.1688 104 123 113
-0.687018 -123.264 23.2208 104 123 113
-0.64005 -114.86 21.6861 104 123 113
-0.639924 -114.86 21.7346 105 123 113
-0.639798 -114.86 21.7831 105 123 113
-0.639672 -114.86 21.8316 105 123 113
-0.639546 -114.86 21.8801 105 124 113
-0.63942 -114.86 21.9287 105 124 114
-0.639294 -114.86 21.9772 106 124 114
-0.639168 -114.86 22.0257 106 125 115
-0.639043 -114.86 22.0742 107 126 115
-0.638917 -114.86 22.1227 107 126 116
-0.70267 -126.346 24.3883 108 127 116
-0.702532 -126.346 24.4417 108 128 117
-0.702393 -126.346 24.4951 109 129 118
-0.702255 -126.346 24.5484 110 130 119
-0.684991 -123.264 24.0017 110 130 119
-0.684856 -123.264 24.0538 110 131 120
-0.638036 -114.86 22.4623 110 131 120
-0.63791 -114.86 22.5108 110 130 119
-0.684451 -123.264 24.21 109 130 119
-0.684316 -123.264 24.2621 108 129 118
-0.684181 -123.264 24.3141 107 128 116
-0.684046 -123.264 24.3662 106 126 115
-0.63728 -114.86 22.7534 105 125 114
-0.637155 -114.86 22.8019 103 123 112
-0.637029 -114.86 22.8504 102 121 110
-0.636903 -114.86 22.8989 100 120 109
-0.636777 -114.86 22.9474 99 118 107
-0.636651 -114.86 22.9959 98 117 106
-0.636525 -114.86 23.0444 97 115 104
-0.636399 -114.86 23.093 96 114 103
-0.636274 -114.86 23.1415 95 112 102
-0.636148 -114.86 23.19 94 111 101
-0.636022 -114.86 23.2385 93 110 100
-0.635896 -114.86 23.287 93 109 99
-0.63577 -114.86 23.3355 92 109 98
-0.635644 -114.86 23.384 92 108 98
-0.68202 -123.264 25.1471 92 108 97
-0.681885 -123.264 25.1992 92 108 97
-0.68175 -123.264 25.2512 92 108 97
-0.681614 -123.264 25.3033 93 108 98
-0.698516 -126.346 25.9892 94 109 99
-0.698378 -126.346 26.0426 95 110 100
-0.698239 -126.346 26.096 96 111 101
-0.698101 -126.346 26.1493 98 113 103
-0.697963 -126.346 26.2027 99 114 105
-0.697824 -126.346 26.2561 101 116 106
-0.614404 -105.276 -7.33666 94 113 101
-0.614289 -105.276 -7.29219 95 113 101
-0.614173 -105.276 -7.24772 96 114 102
-0.614058 -105.276 -7.20325 96 114 102
-0.613943 -105.276 -7.15878 96 115 102
-0.613827 -105.276 -7.11431 97 115 103
-0.613712 -105.276 -7.06984 97 115 103
-0.613597 -105.276 -7.02537 97 115 103
-0.606328 -105.276 -4.22378 94 113 100
-0.606212 -105.276 -4.17931 94 114 100
-0.606097 -105.276 -4.13484 95 115 101
-0.605982 -105.276 -4.09037 95 115 101
-0.660945 -114.846 -4.41371 95 116 101
-0.660819 -114.846 -4.3652 95 116 101
-0.660693 -114.846 -4.31669 95 115 101
-0.660567 -114.846 -4.26817 95 115 101
-0.660442 -114.846 -4.21966 94 115 101
-0.660316 -114.846 -4.17115 94 115 101
-0.66019 -114.846 -4.12264 94 115 101
-0.660064 -114.846 -4.07412 94 115 101
-0.659938 -114.846 -4.02561 94 115 100
-0.659812 -114.846 -3.9771 94 115 100
-0.659686 -114.846 -3.92859 94 114 100
-0.65956 -114.846 -3.88007 93 114 100
-0.707686 -123.25 -4.11192 93 114 99
-0.707551 -123.25 -4.05986 93 114 99
-0.725101 -126.331 -4.10799 92 113 99
-0.724963 -126.331 -4.05463 92 113 98
-0.724824 -126.331 -4.00126 91 112 98
-0.724686 -126.331 -3.9479 91 112 97
-0.724547 -126.331 -3.89454 91 112 97
-0.724409 -126.331 -3.84117 90 111 96
-0.72427 -126.331 -3.78781 89 110 96
-0.724132 -126.331 -3.73444 89 110 95
-0.723993 -126.331 -3.68108 88 109 94
-0.723855 -126.331 -3.62772 88 109 94
-0.723717 -126.331 -3.57435 87 108 93
-0.723578 -126.331 -3.52099 86 107 92
-0.72344 -126.331 -3.46763 86 107 92
-0.723301 -126.331 -3.41426 85 106 91
-0.723163 -126.331 -3.3609 84 105 90
-0.723024 -126.331 -3.30754 83 104 90
-0.722886 -126.331 -3.25417 83 104 89
-0.722747 -126.331 -3.20081 82 103 88
-0.722609 -126.331 -3.14744 81 102 87
-0.722471 -126.331 -3.09408 80 101 87
-0.722332 -126.331 -3.04072 80 100 86
-0.722194 -126.331 -2.98735 79 100 85
-0.722055 -126.331 -2.93399 78 99 85
-0.721917 -126.331 -2.88063 77 98 84
-0.721778 -126.331 -2.82726 77 97 83
-0.72164 -126.331 -2.7739 76 96 83
-0.721501 -126.331 -2.72054 75 96 82
-0.721363 -126.331 -2.66717 74 95 81
-0.65708 -120.315 8.99655 90 108 95
-0.656948 -120.315 9.04737 89 107 95
-0.586942 -107.516 8.1303 89 107 94
-0.586824 -107.516 8.17572 88 106 94
-0.586706 -107.516 8.22113 87 105 93
-0.586589 -107.516 8.26655 86 104 92
-0.574253 -105.276 8.1388 84 102 90
-0.574137 -105.276 8.18327 83 100 89
-0.586235 -107.516 8.4028 81 98 87
-0.586117 -107.516 8.44821 79 97 86
-0.573791 -105.276 8.31668 77 95 84
-0.573676 -105.276 8.36115 75 93 82
-0.585764 -107.516 8.58446 74 91 80
-0.585646 -107.516 8.62988 72 89 78
-0.62545 -114.846 9.26679 69 86 76
-0.625325 -114.846 9.3153 67 84 73
-0.585292 -107.516 8.76613 65 82 71
-0.585175 -107.516 8.81154 63 79 69
-0.53917 -99.0832 8.16229 60 77 66
-0.539061 -99.0832 8.20415 59 75 64
-0.626752 -120.315 20.6857 112 131 123
-0.62662 -120.315 20.7366 112 131 123
-0.611919 -117.517 20.304 112 131 124
-0.61179 -117.517 20.3536 112 131 124
-0.59776 -114.846 19.9395 112 132 124
-0.597634 -114.846 19.988 112 132 124
-0.597508 -114.846 20.0365 112 132 124
-0.597382 -114.846 20.0851 112 132 124
-0.597256 -114.846 20.1336 112 132 124
-0.59713 -114.846 20.1821 112 132 124
-0.610888 -117.517 20.7011 112 132 124
-0.610759 -117.517 20.7507 112 132 123
-0.596753 -114.846 20.3276 112 132 123
-0.596627 -114.846 20.3761 112 132 123
-0.596501 -114.846 20.4246 111 131 122
-0.596375 -114.846 20.4732 111 131 122
-0.596249 -114.846 20.5217 111 131 121
-0.596123 -114.846 20.5702 110 130 121
-0.595997 -114.846 20.6187 110 130 120
-0.595872 -114.846 20.6672 110 129 120
-0.595746 -114.846 20.7157 109 129 120
-0.59562 -114.846 20.7642 109 128 119
-0.595494 -114.846 20.8127 109 128 119
-0.595368 -114.846 20.8613 108 128 118
-0.609085 -117.517 21.396 108 127 118
-0.608956 -117.517 21.4457 108 127 118
-0.59499 -114.846 21.0068 107 126 117
-0.594865 -114.846 21.0553 107 126 117
-0.594739 -114.846 21.1038 107 126 117
-0.594613 -114.846 21.1523 107 126 117
-0.594487 -114.846 21.2008 107 125 116
-0.594361 -114.846 21.2494 106 125 116
-0.594235 -114.846 21.2979 106 125 116
-0.594109 -114.846 21.3464 106 125 116
-0.607797 -117.517 21.8925 106 125 116
-0.607668 -117.517 21.9421 106 125 116
-0.60754 -117.517 21.9917 106 125 116
-0.607411 -117.517 22.0414 106 125 115
-0.607282 -117.517 22.091 106 125 115
-0.607153 -117.517 22.1407 106 125 115
-0.593228 -114.846 21.686 106 125 115
-0.593102 -114.846 21.7345 107 125 115
-0.592977 -114.846 21.783 107 125 115
-0.592851 -114.846 21.8315 107 125 115
-0.592725 -114.846 21.88 107 126 116
-0.592599 -114.846 21.9285 107 126 116
-0.592473 -114.846 21.977 107 126 116
-0.592347 -114.846 22.0256 108 127 116
-0.592221 -114.846 22.0741 108 127 117
-0.592096 -114.846 22.1226 108 128 117
-0.651167 -126.331 24.3882 109 128 118
-0.651028 -126.331 24.4416 109 129 118
-0.65089 -126.331 24.4949 110 130 119
-0.650751 -126.331 24.5483 110 130 120
-0.605221 -117.517 22.8853 111 131 120
-0.605092 -117.517 22.9349 111 131 120
-0.591214 -114.846 22.4622 110 131 120
-0.591089 -114.846 22.5107 110 130 120
-0.604706 -117.517 23.0838 109 130 119
-0.604577 -117.517 23.1335 108 128 118
-0.604448 -117.517 23.1831 107 127 116
-0.60432 -117.517 23.2327 105 125 114
-0.590459 -114.846 22.7532 103 123 113
-0.590333 -114.846 22.8018 102 122 111
-0.590208 -114.846 22.8503 100 120 109
-0.590082 -114.846 22.8988 99 118 107
-0.589956 -114.846 22.9473 97 116 105
-0.58983 -114.846 22.9958 96 114 104
-0.589704 -114.846 23.0443 94 113 102
-0.589578 -114.846 23.0928 93 111 101
-0.589452 -114.846 23.1413 92 110 99
-0.589326 -114.846 23.1899 91 108 98
-0.589201 -114.846 23.2384 90 107 97
-0.589075 -114.846 23.2869 90 106 96
-0.588949 -114.846 23.3354 89 106 95
-0.588823 -114.846 23.3839 89 105 95
-0.602388 -117.517 23.9774 89 105 95
-0.602259 -117.517 24.027 89 105 95
-0.60213 -117.517 24.0766 89 105 95
-0.602001 -117.517 24.1263 90 105 95
-0.647013 -126.331 25.9891 91 106 96
-0.646875 -126.331 26.0425 92 107 98
-0.646736 -126.331 26.0958 94 109 99
-0.646598 -126.331 26.1492 95 111 101
-0.646459 -126.331 26.2026 97 112 103
-0.646321 -126.331 26.2559 99 114 104
-0.571254 -105.264 -7.24783 96 114 102
-0.571139 -105.264 -7.20336 96 114 102
-0.570793 -105.264 -7.06995 97 115 103
-0.570677 -105.264 -7.02548 97 115 103
-0.563178 -105.264 -4.13495 95 115 101
-0.563062 -105.264 -4.09048 95 115 101
-0.614124 -114.833 -4.41383 95 116 102
-0.613998 -114.833 -4.36532 95 116 102
-0.613872 -114.833 -4.31681 95 116 102
-0.613746 -114.833 -4.26829 95 115 101
-0.61362 -114.833 -4.21978 95 115 101
-0.613494 -114.833 -4.17127 95 115 101
-0.613369 -114.833 -4.12276 94 115 101
-0.613243 -114.833 -4.07424 94 115 101
-0.613117 -114.833 -4.02573 94 115 101
-0.612991 -114.833 -3.97722 94 115 101
-0.627118 -117.503 -4.02007 94 115 100
-0.626989 -117.503 -3.97043 94 115 100
-0.673875 -126.316 -4.21485 94 114 100
-0.673736 -126.316 -4.16149 93 114 100
-0.673598 -126.316 -4.10812 93 114 99
-0.673459 -126.316 -4.05476 93 114 99
-0.673321 -126.316 -4.0014 92 113 99
-0.673182 -126.316 -3.94803 92 113 98
-0.673044 -126.316 -3.89467 92 113 98
-0.672906 -126.316 -3.8413 91 112 97
-0.672767 -126.316 -3.78794 91 112 97
-0.672629 -126.316 -3.73458 90 111 96
-0.67249 -126.316 -3.68121 90 111 96
-0.672352 -126.316 -3.62785 89 110 95
-0.672213 -126.316 -3.57449 89 109 94
-0.672075 -126.316 -3.52112 88 109 94
-0.671936 -126.316 -3.46776 87 108 93
-0.671798 -126.316 -3.4144 87 108 93
-0.671659 -126.316 -3.36103 86 107 92
-0.671521 -126.316 -3.30767 85 106 91
-0.671383 -126.316 -3.2543 85 105 91
-0.671244 -126.316 -3.20094 84 105 90
-0.671106 -126.316 -3.14758 83 104 89
-0.670967 -126.316 -3.09421 82 103 88
-0.670829 -126.316 -3.04085 82 102 88
-0.67069 -126.316 -2.98749 81 102 87
-0.670552 -126.316 -2.93412 80 101 87
-0.670413 -126.316 -2.88076 80 100 86
-0.670275 -126.316 -2.8274 79 100 85
-0.670136 -126.316 -2.77403 78 99 85
-0.669998 -126.316 -2.72067 78 98 84
-0.66986 -126.316 -2.6673 77 97 83
-0.58895 -114.833 5.28865 66 77 67
-0.588824 -114.833 5.33716 69 81 71
-0.616732 -120.301 5.64214 73 85 75
-0.6166 -120.301 5.69296 76 89 78
-0.616468 -120.301 5.74378 79 93 81
-0.616336 -120.301 5.79461 82 97 85
-0.567494 -112.281 8.39666 90 107 95
-0.567371 -112.281 8.4441 89 107 95
-0.531795 -105.264 7.96081 88 106 94
-0.531679 -105.264 8.00528 88 106 94
-0.531564 -105.264 8.04975 87 105 93
-0.531449 -105.264 8.09422 85 103 92
-0.531333 -105.264 8.13869 84 102 90
-0.531218 -105.264 8.18316 82 100 89
-0.531102 -105.264 8.22763 80 98 87
-0.530987 -105.264 8.2721 79 96 86
-0.530872 -105.264 8.31657 77 95 84
-0.530756 -105.264 8.36104 75 93 82
-0.530641 -105.264 8.40551 73 91 80
-0.530525 -105.264 8.44998 71 88 78
-0.508972 -101.053 8.24005 64 81 71
-0.508861 -101.053 8.28274 62 78 68
-0.586404 -120.301 17.3313 66 74 64
-0.586272 -120.301 17.3821 68 76 66
-0.551442 -114.833 19.7454 113 132 124
-0.551316 -114.833 19.7939 113 132 124
-0.55119 -114.833 19.8424 113 132 124
-0.551064 -114.833 19.8909 113 132 124
-0.550938 -114.833 19.9394 113 132 124
-0.550813 -114.833 19.9879 113 132 124
-0.550687 -114.833 20.0364 113 132 124
-0.550561 -114.833 20.0849 113 132 124
-0.550435 -114.833 20.1335 113 132 124
-0.550309 -114.833 20.182 113 132 124
-0.550183 -114.833 20.2305 113 132 124
-0.550057 -114.833 20.279 112 132 124
-0.549931 -114.833 20.3275 112 132 124
-0.549806 -114.833 20.376 112 132 123
-0.54968 -114.833 20.4245 112 132 123
-0.549554 -114.833 20.473 112 132 123
-0.549428 -114.833 20.5216 112 132 122
-0.549302 -114.833 20.5701 111 131 122
-0.549176 -114.833 20.6186 111 131 122
-0.54905 -114.833 20.6671 111 131 121
-0.56169 -117.503 21.1974 111 130 121
-0.561561 -117.503 21.247 110 130 120
-0.548673 -114.833 20.8126 110 129 120
-0.548547 -114.833 20.8611 110 129 120
-0.548421 -114.833 20.9097 109 129 120
-0.548295 -114.833 20.9582 109 128 119
-0.548169 -114.833 21.0067 109 128 119
-0.548043 -114.833 21.0552 109 128 119
-0.547918 -114.833 21.1037 109 128 119
-0.547792 -114.833 21.1522 108 127 118
-0.547666 -114.833 21.2007 108 127 118
-0.54754 -114.833 21.2492 108 127 118
-0.547414 -114.833 21.2977 108 127 118
-0.547288 -114.833 21.3463 108 127 118
-0.547162 -114.833 21.3948 108 127 117
-0.547036 -114.833 21.4433 108 127 117
-0.546911 -114.833 21.4918 108 127 117
-0.546785 -114.833 21.5403 108 127 117
-0.546659 -114.833 21.5888 108 127 117
-0.546533 -114.833 21.6373 108 127 117
-0.546407 -114.833 21.6858 108 127 117
-0.546281 -114.833 21.7344 108 127 117
-0.546155 -114.833 21.7829 108 127 117
-0.54603 -114.833 21.8314 108 127 117
-0.545904 -114.833 21.8799 108 127 117
-0.545778 -114.833 21.9284 108 128 117
-0.545652 -114.833 21.9769 109 128 118
-0.545526 -114.833 22.0254 109 128 118
-0.5454 -114.833 22.0739 109 129 118
-0.545274 -114.833 22.1225 110 129 119
-0.585037 -123.235 23.7932 110 129 119
-0.584902 -123.235 23.8453 110 130 120
-0.584767 -123.235 23.8974 111 130 120
-0.584632 -123.235 23.9494 111 131 121
-0.544645 -114.833 22.365 111 131 121
-0.544519 -114.833 22.4135 111 132 121
-0.544393 -114.833 22.462 111 131 121
-0.544267 -114.833 22.5106 110 130 120
-0.544142 -114.833 22.5591 109 129 119
-0.544016 -114.833 22.6076 108 128 117
-0.54389 -114.833 22.6561 106 126 116
-0.543764 -114.833 22.7046 104 124 114
-0.543638 -114.833 22.7531 103 122 112
-0.543512 -114.833 22.8016 101 120 110
-0.543386 -114.833 22.8501 99 118 107
-0.54326 -114.833 22.8987 97 116 105
-0.543135 -114.833 22.9472 95 114 103
-0.543009 -114.833 22.9957 94 112 102
-0.542883 -114.833 23.0442 92 110 100
-0.542757 -114.833 23.0927 91 109 98
-0.542631 -114.833 23.1412 90 107 97
-0.542505 -114.833 23.1897 89 106 95
-0.542379 -114.833 23.2382 88 105 94
-0.542254 -114.833 23.2868 87 104 94
-0.542128 -114.833 23.3353 87 103 93
-0.542002 -114.833 23.3838 87 103 92
-0.541876 -114.833 23.4323 87 102 92
-0.54175 -114.833 23.4808 87 102 92
-0.541624 -114.833 23.5293 87 102 92
-0.541498 -114.833 23.5778 88 103 93
-0.59551 -126.316 25.989 89 104 94
-0.595371 -126.316 26.0423 90 105 95
-0.595233 -126.316 26.0957 92 107 97
-0.595094 -126.316 26.1491 93 109 99
-0.594956 -126.316 26.2024 95 111 101
-0.594817 -126.316 26.2558 97 113 103
-0.594679 -126.316 26.3092 99 114 105
-0.594541 -126.316 26.3625 100 116 106
-0.528335 -105.251 -7.24794 96 114 102
-0.528219 -105.251 -7.20347 96 114 102
-0.527873 -105.251 -7.07006 97 115 103
-0.527758 -105.251 -7.02559 97 115 102
-0.520258 -105.251 -4.13506 94 115 101
-0.520143 -105.251 -4.09059 95 115 101
-0.567303 -114.82 -4.41395 95 116 102
-0.567177 -114.82 -4.36544 95 116 102
-0.567051 -114.82 -4.31693 95 116 102
-0.566925 -114.82 -4.26841 95 115 101
-0.566799 -114.82 -4.2199 95 115 101
-0.566673 -114.82 -4.17139 95 115 101
-0.566547 -114.82 -4.12288 95 115 101
-0.566422 -114.82 -4.07437 94 115 101
-0.566296 -114.82 -4.02585 94 115 101
-0.56617 -114.82 -3.97734 94 115 101
-0.607462 -123.221 -4.2163 94 115 101
-0.607327 -123.221 -4.16424 94 115 101
-0.622371 -126.301 -4.21498 94 115 100
-0.622233 -126.301 -4.16162 94 115 100
-0.622095 -126.301 -4.10826 93 114 100
-0.621956 -126.301 -4.05489 93 114 100
-0.621818 -126.301 -4.00153 93 114 99
-0.621679 -126.301 -3.94817 93 114 99
-0.621541 -126.301 -3.8948 92 113 98
-0.621402 -126.301 -3.84144 92 113 98
-0.621264 -126.301 -3.78807 92 112 98
-0.621125 -126.301 -3.73471 91 112 97
-0.620987 -126.301 -3.68135 91 112 97
-0.620848 -126.301 -3.62798 90 111 96
-0.62071 -126.301 -3.57462 90 111 96
-0.620572 -126.301 -3.52126 89 110 95
-0.620433 -126.301 -3.46789 89 110 95
-0.620295 -126.301 -3.41453 88 109 94
-0.620156 -126.301 -3.36116 88 108 93
-0.620018 -126.301 -3.3078 87 108 93
-0.619879 -126.301 -3.25444 86 107 92
-0.619741 -126.301 -3.20107 86 106 91
