ply
format ascii 1.0
comment author : Loiseau & Broux
comment object : 3d point Cloud
element vertex 1266
property float x
property float y
property float z
property uchar red
property uchar green
property uchar blue
end_header
0.026439 -70.0771 19.8034 120 141 134
0.0265159 -70.0771 19.8331 119 140 133
0.0265929 -70.0771 19.8627 119 140 133
0.0266698 -70.0771 19.8924 119 140 133
0.0267467 -70.0771 19.922 119 140 133
0.0268236 -70.0771 19.9517 119 140 133
0.0269005 -70.0771 19.9813 119 140 133
0.0269775 -70.0771 20.011 119 140 134
0.0270544 -70.0771 20.0406 119 140 134
0.0271313 -70.0771 20.0703 119 140 134
0.0272082 -70.0771 20.0999 119 140 134
0.0272851 -70.0771 20.1296 119 140 134
0.0273621 -70.0771 20.1592 119 140 134
0.027439 -70.0771 20.1889 119 140 134
0.0275159 -70.0771 20.2185 119 140 134
0.0292159 -74.1993 21.4392 119 140 134
0.0292974 -74.1993 21.4706 119 140 134
0.0293788 -74.1993 21.502 119 140 134
0.0294602 -74.1993 21.5334 119 140 134
0.0279005 -70.0771 20.3667 118 140 133
0.0279774 -70.0771 20.3964 118 140 133
0.0280543 -70.0771 20.426 118 139 133
0.0281312 -70.0771 20.4557 118 139 133
0.0282082 -70.0771 20.4853 118 139 133
0.0282851 -70.0771 20.515 118 139 133
0.0287615 -71.0641 20.834 118 139 133
0.0288395 -71.0641 20.864 118 139 133
0.0289175 -71.0641 20.8941 117 139 133
0.0289955 -71.0641 20.9242 117 139 133
0.0303561 -74.1993 21.8787 117 139 133
0.0304376 -74.1993 21.9101 117 139 133
0.030519 -74.1993 21.9415 118 139 133
0.0306005 -74.1993 21.9728 118 140 134
0.0306819 -74.1993 22.0042 118 140 134
0.0307633 -74.1993 22.0356 118 141 134
0.0308448 -74.1993 22.067 119 141 135
0.0309262 -74.1993 22.0984 119 142 136
0.0310077 -74.1993 22.1298 120 142 136
0.0310891 -74.1993 22.1612 120 143 137
0.0307188 -73.1239 21.871 121 144 137
0.0307991 -73.1239 21.9019 121 144 138
0.0295927 -70.0771 21.019 121 145 138
0.0296696 -70.0771 21.0486 122 145 139
0.0297465 -70.0771 21.0782 122 146 139
0.0298235 -70.0771 21.1079 122 146 139
0.0299004 -70.0771 21.1375 123 146 140
0.0299773 -70.0771 21.1672 123 146 140
0.0300542 -70.0771 21.1968 123 146 140
0.0301311 -70.0771 21.2265 123 146 140
0.031985 -74.1993 22.5065 123 146 139
0.0320664 -74.1993 22.5379 123 146 139
0.0321479 -74.1993 22.5693 123 146 139
0.0322293 -74.1993 22.6007 123 145 138
0.0323108 -74.1993 22.632 123 145 138
0.0323922 -74.1993 22.6634 122 144 137
0.0306696 -70.0771 21.434 122 144 137
0.0307465 -70.0771 21.4637 122 143 137
0.0308234 -70.0771 21.4933 122 143 136
0.0309003 -70.0771 21.5229 122 143 136
0.0309772 -70.0771 21.5526 121 142 136
0.0310542 -70.0771 21.5822 121 142 135
0.0311311 -70.0771 21.6119 121 142 135
0.031208 -70.0771 21.6415 121 142 135
0.0312849 -70.0771 21.6712 121 142 134
0.0313618 -70.0771 21.7008 121 141 134
0.0314388 -70.0771 21.7305 121 142 134
0.0315157 -70.0771 21.7601 121 142 134
0.0315926 -70.0771 21.7898 121 142 134
0.0316695 -70.0771 21.8194 121 142 134
0.0317464 -70.0771 21.8491 120 141 134
0.0318233 -70.0771 21.8787 120 141 133
0.0319003 -70.0771 21.9083 119 140 132
0.0319772 -70.0771 21.938 118 138 130
0.0320541 -70.0771 21.9676 116 136 128
0.032131 -70.0771 21.9973 114 133 126
0.0322079 -70.0771 22.0269 112 131 123
0.0322849 -70.0771 22.0566 109 128 120
0.0323618 -70.0771 22.0862 107 125 117
0.0324387 -70.0771 22.1159 104 122 114
0.0325156 -70.0771 22.1455 101 119 111
0.0325925 -70.0771 22.1752 99 115 107
0.0326695 -70.0771 22.2048 96 112 104
0.0327464 -70.0771 22.2345 93 108 100
0.0328233 -70.0771 22.2641 90 104 95
0.0329002 -70.0771 22.2938 87 100 91
0.0329771 -70.0771 22.3234 84 97 87
0.0330541 -70.0771 22.353 82 93 84
0.033131 -70.0771 22.3827 80 90 80
0.0332079 -70.0771 22.4123 78 86 77
0.0332848 -70.0771 22.442 76 83 73
0.0333617 -70.0771 22.4716 74 81 71
0.0334386 -70.0771 22.5013 73 78 68
0.0335156 -70.0771 22.5309 71 76 66
0.0201879 -84.0827 6.08289 88 107 94
0.0202802 -84.0827 6.11847 88 107 94
0.0203725 -84.0827 6.15404 88 108 95
0.0204648 -84.0827 6.18962 89 108 95
0.0205571 -84.0827 6.22519 89 108 96
0.0206494 -84.0827 6.26077 89 108 96
0.0207417 -84.0827 6.29635 89 109 97
0.020834 -84.0827 6.33192 89 109 97
0.0209263 -84.0827 6.3675 90 109 98
0.0210186 -84.0827 6.40307 90 110 98
0.0211109 -84.0827 6.43865 90 110 99
0.0212032 -84.0827 6.47422 90 110 99
0.0212956 -84.0827 6.5098 89 110 99
0.0213879 -84.0827 6.54538 89 109 98
0.0204573 -80.0787 6.26757 89 109 98
0.0205452 -80.0787 6.30146 88 108 98
0.0203107 -78.8275 6.23635 88 108 98
0.0203972 -78.8275 6.2697 88 108 98
0.0204838 -78.8275 6.30305 88 108 98
0.0205703 -78.8275 6.3364 88 108 97
0.0216728 -82.7043 6.68302 87 107 97
0.0217635 -82.7043 6.71802 87 106 96
0.0222186 -84.0827 6.86556 86 105 95
0.0223109 -84.0827 6.90113 85 104 94
0.0224032 -84.0827 6.93671 84 103 92
0.0224955 -84.0827 6.97229 83 102 91
0.0225878 -84.0827 7.00786 82 101 90
0.0226801 -84.0827 7.04344 82 101 90
0.0227724 -84.0827 7.07901 82 100 89
0.0228647 -84.0827 7.11459 82 100 89
0.022957 -84.0827 7.15016 82 100 89
0.0230493 -84.0827 7.18574 82 100 89
0.0231416 -84.0827 7.22132 83 100 90
0.0232339 -84.0827 7.25689 83 101 90
0.0233262 -84.0827 7.29247 84 101 90
0.0234185 -84.0827 7.32804 84 101 91
0.0235108 -84.0827 7.36362 85 102 91
0.0236031 -84.0827 7.39919 85 102 92
0.0236954 -84.0827 7.43477 86 102 92
0.0237877 -84.0827 7.47035 86 103 93
0.02388 -84.0827 7.50592 87 104 94
0.0239723 -84.0827 7.5415 88 104 95
0.0240646 -84.0827 7.57707 89 105 95
0.0241569 -84.0827 7.61265 89 106 96
0.0242492 -84.0827 7.64823 90 107 98
0.0243415 -84.0827 7.6838 92 108 99
0.0244338 -84.0827 7.71938 93 109 101
0.0245261 -84.0827 7.75495 95 111 102
0.0246184 -84.0827 7.79053 96 113 104
0.0247108 -84.0827 7.8261 98 115 106
0.0248031 -84.0827 7.86168 100 117 108
0.0248954 -84.0827 7.89726 102 119 110
0.0249877 -84.0827 7.93283 104 121 112
0.02508 -84.0827 7.96841 106 123 114
0.0251723 -84.0827 8.00398 108 125 116
0.0252646 -84.0827 8.03956 110 128 118
0.0253569 -84.0827 8.07513 112 130 121
0.0254492 -84.0827 8.11071 114 132 123
0.0255415 -84.0827 8.14629 117 135 125
0.0256338 -84.0827 8.18186 119 137 127
0.024501 -80.0787 7.82613 121 139 129
0.0245889 -80.0787 7.86001 123 141 131
0.0259107 -84.0827 8.28859 124 143 133
0.026003 -84.0827 8.32416 126 145 134
0.0260953 -84.0827 8.35974 128 147 136
0.0261876 -84.0827 8.39532 129 148 137
0.0262799 -84.0827 8.43089 130 150 138
0.0263722 -84.0827 8.46647 131 151 140
0.0264645 -84.0827 8.50204 132 152 140
0.0265568 -84.0827 8.53762 133 153 141
0.0266491 -84.0827 8.5732 133 153 142
0.0267414 -84.0827 8.60877 134 154 142
0.0268337 -84.0827 8.64435 134 154 142
0.026926 -84.0827 8.67992 134 154 142
0.0270183 -84.0827 8.7155 134 154 143
0.0271106 -84.0827 8.75107 134 154 143
0.026757 -82.7043 8.64261 134 154 143
0.0268478 -82.7043 8.6776 134 154 143
0.0256758 -78.8275 8.30419 134 154 143
0.0257623 -78.8275 8.33754 134 154 143
0.0258489 -78.8275 8.37089 134 154 143
0.0259354 -78.8275 8.40425 134 154 143
0.0277567 -84.0827 9.0001 134 154 143
0.027849 -84.0827 9.03568 134 154 143
0.0279413 -84.0827 9.07126 134 154 143
0.0280336 -84.0827 9.10683 133 154 143
0.028126 -84.0827 9.14241 133 154 142
0.0282183 -84.0827 9.17798 133 153 142
0.0283106 -84.0827 9.21356 132 153 142
0.0284029 -84.0827 9.24913 131 152 141
0.0284952 -84.0827 9.28471 130 152 141
0.0285875 -84.0827 9.32029 130 151 140
0.0286798 -84.0827 9.35586 129 150 139
0.0287721 -84.0827 9.39144 128 150 138
0.0288644 -84.0827 9.42701 127 149 137
0.0289567 -84.0827 9.46259 126 148 137
0.029049 -84.0827 9.49817 125 148 136
0.0291413 -84.0827 9.53374 125 147 135
0.0292336 -84.0827 9.56932 124 147 135
0.0293259 -84.0827 9.60489 123 146 134
0.0275796 -78.8275 9.03794 123 145 133
0.0276661 -78.8275 9.07129 122 145 132
0.0296028 -84.0827 9.71162 121 144 132
0.0296951 -84.0827 9.7472 121 143 131
0.0279257 -78.8275 9.17135 120 142 130
0.0280122 -78.8275 9.2047 119 142 129
0.0285448 -80.0787 9.38469 119 141 129
0.0286327 -80.0787 9.41857 118 140 128
0.0282718 -78.8275 9.30476 118 139 127
0.0283584 -78.8275 9.33811 118 139 127
0.0284449 -78.8275 9.37146 118 140 127
0.0285314 -78.8275 9.40481 118 140 127
0.028618 -78.8275 9.43817 118 139 127
0.0287045 -78.8275 9.47152 118 138 127
0.028791 -78.8275 9.50487 117 138 127
0.0288776 -78.8275 9.53822 116 137 126
0.0289641 -78.8275 9.57158 115 135 125
0.0290506 -78.8275 9.60493 113 133 123
0.0291372 -78.8275 9.63828 111 130 121
0.0292237 -78.8275 9.67163 109 128 119
0.0293102 -78.8275 9.70498 107 125 116
0.0293968 -78.8275 9.73834 105 123 114
0.0299513 -80.0787 9.9268 103 120 112
0.0300392 -80.0787 9.96068 100 118 110
0.0301271 -80.0787 9.99456 98 115 108
0.030215 -80.0787 10.0284 96 113 106
0.0298294 -78.8275 9.9051 94 110 103
0.029916 -78.8275 9.93845 92 108 101
0.0300025 -78.8275 9.9718 90 106 99
0.030089 -78.8275 10.0052 88 104 97
0.0301756 -78.8275 10.0385 87 103 96
0.0302621 -78.8275 10.0719 86 102 95
0.0303486 -78.8275 10.1052 85 101 94
0.0304352 -78.8275 10.1386 83 99 93
0.0424643 -97.0185 14.4075 86 101 90
0.0425708 -97.0185 14.4486 87 101 90
0.0426773 -97.0185 14.4896 87 102 91
0.0427838 -97.0185 14.5307 87 102 91
0.0405509 -91.7266 13.7769 88 102 91
0.0406516 -91.7266 13.8157 88 102 92
0.0407522 -91.7266 13.8545 88 103 92
0.0408529 -91.7266 13.8933 88 103 93
0.0433163 -97.0185 14.7359 89 104 93
0.0434228 -97.0185 14.777 89 104 94
0.0435293 -97.0185 14.818 90 105 95
0.0436359 -97.0185 14.8591 90 106 95
0.0437424 -97.0185 14.9001 91 107 96
0.0438489 -97.0185 14.9412 92 108 97
0.0557656 -74.1906 19.9952 50 61 54
0.055847 -74.1906 20.0266 54 64 57
0.0559285 -74.1906 20.058 57 69 62
0.0560099 -74.1906 20.0893 61 73 66
0.0560914 -74.1906 20.1207 66 78 71
0.0561728 -74.1906 20.1521 70 83 76
0.055439 -73.1154 19.891 74 88 81
0.0555192 -73.1154 19.9219 79 93 86
0.0532828 -70.0689 19.1215 83 98 91
0.0533598 -70.0689 19.1512 88 103 96
0.0534367 -70.0689 19.1808 92 108 101
0.0535136 -70.0689 19.2104 96 112 106
0.0535905 -70.0689 19.2401 99 117 110
0.0536674 -70.0689 19.2697 103 121 114
0.0537444 -70.0689 19.2994 106 124 118
0.0538213 -70.0689 19.329 109 128 121
0.0538982 -70.0689 19.3587 111 130 124
0.0539751 -70.0689 19.3883 114 133 126
0.054052 -70.0689 19.418 115 135 128
0.0541289 -70.0689 19.4476 117 137 130
0.0542059 -70.0689 19.4773 118 138 132
0.0542828 -70.0689 19.5069 119 140 133
0.0543597 -70.0689 19.5366 120 140 133
0.0544366 -70.0689 19.5662 120 141 134
0.0545135 -70.0689 19.5958 120 141 134
0.0545905 -70.0689 19.6255 120 142 134
0.0546674 -70.0689 19.6551 120 142 135
0.0547443 -70.0689 19.6848 120 141 134
0.0548212 -70.0689 19.7144 120 141 134
0.0548981 -70.0689 19.7441 120 141 134
0.0549751 -70.0689 19.7737 119 141 134
0.055052 -70.0689 19.8034 119 140 133
0.0551289 -70.0689 19.833 119 140 133
0.0552058 -70.0689 19.8627 119 140 133
0.0552827 -70.0689 19.8923 119 140 133
0.0553597 -70.0689 19.922 119 140 133
0.0554366 -70.0689 19.9516 119 140 133
0.0555135 -70.0689 19.9813 119 140 133
0.0555904 -70.0689 20.0109 119 140 133
0.0556673 -70.0689 20.0405 119 140 133
0.0557442 -70.0689 20.0702 119 140 133
0.0558212 -70.0689 20.0998 119 140 134
0.0558981 -70.0689 20.1295 119 140 134
0.055975 -70.0689 20.1591 119 140 134
0.0560519 -70.0689 20.1888 119 140 134
0.0561288 -70.0689 20.2184 119 140 134
0.059512 -74.1906 21.4391 119 140 134
0.0595934 -74.1906 21.4705 119 140 134
0.0596749 -74.1906 21.5019 119 140 134
0.0597563 -74.1906 21.5333 119 140 134
0.0565134 -70.0689 20.3667 118 140 133
0.0565904 -70.0689 20.3963 118 140 133
0.0566673 -70.0689 20.426 118 139 133
0.0567442 -70.0689 20.4556 118 139 133
0.0568211 -70.0689 20.4852 118 139 133
0.056898 -70.0689 20.5149 118 139 133
0.0594521 -73.1154 21.4378 118 139 133
0.0595324 -73.1154 21.4687 118 139 133
0.0596126 -73.1154 21.4996 117 139 133
0.0596929 -73.1154 21.5306 117 139 133
0.0606522 -74.1906 21.8786 117 139 133
0.0607336 -74.1906 21.91 118 139 133
0.0608151 -74.1906 21.9414 118 140 134
0.0608965 -74.1906 21.9728 118 140 134
0.060978 -74.1906 22.0042 118 140 134
0.0610594 -74.1906 22.0356 118 141 135
0.0611409 -74.1906 22.0669 119 141 135
0.0612223 -74.1906 22.0983 119 142 136
0.0613037 -74.1906 22.1297 120 143 136
0.0613852 -74.1906 22.1611 120 143 137
0.0588694 -71.0558 21.2548 121 144 138
0.0589474 -71.0558 21.2849 121 145 138
0.0582057 -70.0689 21.0189 122 145 139
0.0582826 -70.0689 21.0485 122 145 139
0.0583595 -70.0689 21.0782 122 146 139
0.0584364 -70.0689 21.1078 123 146 139
0.0585133 -70.0689 21.1375 123 146 140
0.0585902 -70.0689 21.1671 123 147 140
0.0586672 -70.0689 21.1968 123 147 140
0.0587441 -70.0689 21.2264 123 147 140
0.0622811 -74.1906 22.5064 123 146 139
0.0623625 -74.1906 22.5378 123 146 139
0.062444 -74.1906 22.5692 123 146 139
0.0625254 -74.1906 22.6006 123 145 138
0.0626068 -74.1906 22.632 123 145 138
0.0626883 -74.1906 22.6634 122 144 137
0.0592825 -70.0689 21.4339 122 144 137
0.0593594 -70.0689 21.4636 122 143 136
0.0594364 -70.0689 21.4932 121 143 136
0.0595133 -70.0689 21.5229 121 142 136
0.0595902 -70.0689 21.5525 121 142 135
0.0596671 -70.0689 21.5822 121 142 135
0.059744 -70.0689 21.6118 120 141 135
0.059821 -70.0689 21.6415 120 141 134
0.0598979 -70.0689 21.6711 120 141 134
0.0599748 -70.0689 21.7007 120 141 134
0.0600517 -70.0689 21.7304 120 141 134
0.0601286 -70.0689 21.76 120 141 134
0.0602055 -70.0689 21.7897 120 142 134
0.0602825 -70.0689 21.8193 120 142 134
0.0603594 -70.0689 21.849 120 141 134
0.0604363 -70.0689 21.8786 120 141 134
0.0605132 -70.0689 21.9083 119 140 133
0.0605901 -70.0689 21.9379 118 139 131
0.0606671 -70.0689 21.9676 116 136 129
0.060744 -70.0689 21.9972 114 134 127
0.0608209 -70.0689 22.0269 112 131 124
0.0608978 -70.0689 22.0565 110 129 121
0.0609747 -70.0689 22.0862 107 126 118
0.0610517 -70.0689 22.1158 105 123 115
0.0611286 -70.0689 22.1454 102 120 112
0.0612055 -70.0689 22.1751 99 116 108
0.0612824 -70.0689 22.2047 96 113 105
0.0613593 -70.0689 22.2344 93 109 101
0.0614362 -70.0689 22.264 90 105 96
0.0615132 -70.0689 22.2937 87 101 92
0.0615901 -70.0689 22.3233 85 97 88
0.061667 -70.0689 22.353 82 94 84
0.0617439 -70.0689 22.3826 80 90 81
0.0618208 -70.0689 22.4123 78 87 77
0.0618978 -70.0689 22.4419 76 84 74
0.0619747 -70.0689 22.4716 74 81 71
0.0620516 -70.0689 22.5012 72 78 68
0.0621285 -70.0689 22.5309 71 76 66
0.0545235 -84.0728 6.0828 89 109 95
0.0546158 -84.0728 6.11838 90 109 96
0.0547081 -84.0728 6.15395 90 109 97
0.0548004 -84.0728 6.18953 90 110 97
0.0548927 -84.0728 6.22511 91 110 98
0.054985 -84.0728 6.26068 91 110 98
0.0550773 -84.0728 6.29626 91 111 99
0.0551696 -84.0728 6.33183 91 111 100
0.0552619 -84.0728 6.36741 92 112 100
0.0553542 -84.0728 6.40298 92 113 101
0.0554465 -84.0728 6.43856 93 113 101
0.0555388 -84.0728 6.47414 93 113 102
0.0556311 -84.0728 6.50971 92 113 102
0.0557234 -84.0728 6.54529 92 112 102
0.0523272 -78.8183 6.16956 92 112 102
0.0524138 -78.8183 6.20291 92 112 102
0.0525003 -78.8183 6.23626 92 112 102
0.0525868 -78.8183 6.26962 92 112 102
0.0535094 -80.0693 6.40302 92 112 102
0.0535973 -80.0693 6.4369 92 112 101
0.0563695 -84.0728 6.79432 92 112 101
0.0564618 -84.0728 6.82989 92 111 101
0.0565541 -84.0728 6.86547 91 110 100
0.0566464 -84.0728 6.90105 90 109 99
0.0567387 -84.0728 6.93662 89 108 98
0.056831 -84.0728 6.9722 89 107 97
0.0569233 -84.0728 7.00777 88 107 96
0.0570156 -84.0728 7.04335 88 106 96
0.0571079 -84.0728 7.07892 88 106 95
0.0572002 -84.0728 7.1145 88 106 95
0.0572925 -84.0728 7.15008 88 106 96
0.0573848 -84.0728 7.18565 89 107 96
0.0574771 -84.0728 7.22123 89 107 96
0.0575695 -84.0728 7.2568 90 107 97
0.0576618 -84.0728 7.29238 90 108 97
0.0577541 -84.0728 7.32795 91 108 98
0.0578464 -84.0728 7.36353 92 109 98
0.0579387 -84.0728 7.39911 92 109 99
0.058031 -84.0728 7.43468 93 110 100
0.0581233 -84.0728 7.47026 94 110 100
0.0582156 -84.0728 7.50583 94 111 101
0.0583079 -84.0728 7.54141 95 112 102
0.0584002 -84.0728 7.57699 96 113 103
0.0584925 -84.0728 7.61256 97 114 104
0.0585848 -84.0728 7.64814 98 115 105
0.0586771 -84.0728 7.68371 99 116 107
0.0587694 -84.0728 7.71929 100 117 108
0.0588617 -84.0728 7.75486 102 119 110
0.058954 -84.0728 7.79044 104 121 112
0.0590463 -84.0728 7.82602 105 122 114
0.0591386 -84.0728 7.86159 107 124 115
0.0592309 -84.0728 7.89717 109 126 117
0.0593232 -84.0728 7.93274 111 128 119
0.0594155 -84.0728 7.96832 113 131 121
0.0595078 -84.0728 8.00389 115 133 123
0.0596001 -84.0728 8.03947 117 135 125
0.0596924 -84.0728 8.07505 119 137 128
0.0597847 -84.0728 8.11062 121 139 130
0.059877 -84.0728 8.1462 123 142 132
0.0599693 -84.0728 8.18177 125 144 134
0.0572015 -80.0693 7.82605 127 146 135
0.0572895 -80.0693 7.85993 129 148 137
0.0602462 -84.0728 8.2885 130 149 139
0.0603385 -84.0728 8.32408 132 151 140
0.0604308 -84.0728 8.35965 133 153 142
0.0605231 -84.0728 8.39523 134 154 143
0.0606154 -84.0728 8.4308 136 155 144
0.0607077 -84.0728 8.46638 137 156 145
0.0608 -84.0728 8.50196 137 157 146
0.0608923 -84.0728 8.53753 138 158 146
0.0609847 -84.0728 8.57311 138 158 147
0.061077 -84.0728 8.60868 139 159 147
0.0611693 -84.0728 8.64426 139 159 147
0.0612616 -84.0728 8.67983 139 159 148
0.0613539 -84.0728 8.71541 139 159 148
0.0614462 -84.0728 8.75099 139 159 148
0.0605296 -82.6946 8.64252 139 159 148
0.0606204 -82.6946 8.67751 139 159 148
0.0578654 -78.8183 8.30411 139 159 148
0.0579519 -78.8183 8.33746 139 159 148
0.0580384 -78.8183 8.37081 139 159 148
0.058125 -78.8183 8.40416 139 159 148
0.0620923 -84.0728 9.00002 139 159 148
0.0621846 -84.0728 9.03559 139 159 148
0.0622769 -84.0728 9.07117 139 159 148
0.0623692 -84.0728 9.10674 138 159 148
0.0624615 -84.0728 9.14232 138 159 147
0.0625538 -84.0728 9.17789 137 158 147
0.0626461 -84.0728 9.21347 137 158 146
0.0627384 -84.0728 9.24905 136 157 146
0.0628307 -84.0728 9.28462 135 156 145
0.062923 -84.0728 9.3202 134 156 144
0.0630153 -84.0728 9.35577 133 155 143
0.0631076 -84.0728 9.39135 132 154 142
0.0631999 -84.0728 9.42693 131 153 141
0.0632922 -84.0728 9.4625 130 152 140
0.0623454 -82.6946 9.34237 129 151 139
0.0624362 -82.6946 9.37736 128 151 138
0.062527 -82.6946 9.41236 127 150 138
0.0626178 -82.6946 9.44735 126 149 137
0.0597691 -78.8183 9.03786 125 148 136
0.0598557 -78.8183 9.07121 124 147 135
0.0628902 -82.6946 9.55233 124 146 134
0.062981 -82.6946 9.58732 123 145 133
0.0601153 -78.8183 9.17127 122 144 132
0.0602018 -78.8183 9.20462 121 143 131
0.0602883 -78.8183 9.23797 120 142 130
0.0603749 -78.8183 9.27132 119 141 129
0.0604614 -78.8183 9.30467 119 141 129
0.0605479 -78.8183 9.33803 119 140 128
0.0606345 -78.8183 9.37138 119 140 128
0.060721 -78.8183 9.40473 119 140 128
0.0608075 -78.8183 9.43808 118 139 128
0.0608941 -78.8183 9.47144 118 139 127
0.0609806 -78.8183 9.50479 117 138 127
0.0610671 -78.8183 9.53814 117 136 126
0.0611537 -78.8183 9.57149 115 135 125
0.0612402 -78.8183 9.60484 113 133 123
0.0613267 -78.8183 9.6382 111 130 121
0.0614133 -78.8183 9.67155 109 127 118
0.0614998 -78.8183 9.7049 107 125 116
0.0615863 -78.8183 9.73825 105 122 114
0.0616729 -78.8183 9.77161 102 120 112
0.0617594 -78.8183 9.80496 100 118 110
0.0618459 -78.8183 9.83831 98 115 107
0.0619325 -78.8183 9.87166 96 113 105
0.062019 -78.8183 9.90502 94 110 103
0.0621055 -78.8183 9.93837 91 108 101
0.0621921 -78.8183 9.97172 90 106 98
0.0622786 -78.8183 10.0051 88 104 97
0.0623651 -78.8183 10.0384 86 102 95
0.0624517 -78.8183 10.0718 85 101 94
0.0625382 -78.8183 10.1051 84 100 93
0.0626247 -78.8183 10.1385 83 98 91
0.0820823 -97.0071 14.4074 87 101 90
0.0821888 -97.0071 14.4485 87 102 91
0.0807425 -95.1768 14.2161 88 102 91
0.080847 -95.1768 14.2564 88 102 92
0.0766148 -90.078 13.5308 88 102 92
0.0767137 -90.078 13.5689 88 103 92
0.0768126 -90.078 13.607 88 103 93
0.0769115 -90.078 13.6451 89 103 93
0.0813695 -95.1768 14.4578 89 104 94
0.081474 -95.1768 14.4981 89 104 94
0.0831473 -97.0071 14.8179 90 105 95
0.0832538 -97.0071 14.859 90 106 95
0.0833603 -97.0071 14.9 91 106 96
0.0834668 -97.0071 14.9411 91 107 97
0.0835733 -97.0071 14.9821 92 108 98
0.0836798 -97.0071 15.0232 93 109 99
0.0837863 -97.0071 15.0642 94 110 100
0.0838928 -97.0071 15.1053 95 111 101
0.0839993 -97.0071 15.1463 95 112 102
0.0841058 -97.0071 15.1874 95 112 102
0.0860616 -74.1819 19.9951 52 62 55
0.0861431 -74.1819 20.0265 55 66 59
0.0862245 -74.1819 20.0579 59 71 63
0.086306 -74.1819 20.0893 63 75 68
0.0863874 -74.1819 20.1207 67 80 73
0.0864689 -74.1819 20.1521 72 85 78
0.1154 -98.9092 26.9113 76 90 83
0.115509 -98.9092 26.9531 80 95 88
0.109194 -93.4142 25.4952 85 99 93
0.109297 -93.4142 25.5348 89 104 98
0.0820496 -70.0607 19.1807 93 109 103
0.0821265 -70.0607 19.2104 97 114 107
0.0822035 -70.0607 19.24 100 118 111
0.0822804 -70.0607 19.2697 104 122 115
0.0823573 -70.0607 19.2993 107 125 119
0.0824342 -70.0607 19.329 109 128 122
0.0825111 -70.0607 19.3586 112 131 125
0.0825881 -70.0607 19.3883 114 133 127
0.082665 -70.0607 19.4179 116 136 129
0.0827419 -70.0607 19.4475 117 137 131
0.0828188 -70.0607 19.4772 118 139 132
0.0828957 -70.0607 19.5068 119 140 133
0.0829727 -70.0607 19.5365 120 141 134
0.0830496 -70.0607 19.5661 120 141 134
0.0831265 -70.0607 19.5958 120 141 135
0.0832034 -70.0607 19.6254 120 142 135
0.0832803 -70.0607 19.6551 120 142 135
0.0833573 -70.0607 19.6847 120 141 135
0.0834342 -70.0607 19.7144 120 141 134
0.0835111 -70.0607 19.744 119 141 134
0.083588 -70.0607 19.7737 119 140 134
0.0836649 -70.0607 19.8033 119 140 133
0.0837418 -70.0607 19.8329 119 140 133
0.0838188 -70.0607 19.8626 118 139 133
0.0838957 -70.0607 19.8922 118 139 133
0.0839726 -70.0607 19.9219 118 139 133
0.0840495 -70.0607 19.9515 118 139 133
0.0841264 -70.0607 19.9812 118 139 133
0.0842034 -70.0607 20.0108 118 139 133
0.0842803 -70.0607 20.0405 118 139 133
0.0843572 -70.0607 20.0701 118 139 133
0.0844341 -70.0607 20.0998 118 140 133
0.084511 -70.0607 20.1294 118 140 133
0.084588 -70.0607 20.1591 118 140 133
0.0846649 -70.0607 20.1887 118 140 133
0.0847418 -70.0607 20.2184 118 140 133
0.0885065 -73.1068 21.1283 118 140 133
0.0885867 -73.1068 21.1593 118 140 133
0.088667 -73.1068 21.1902 118 140 133
0.0887473 -73.1068 21.2212 118 139 133
0.0851264 -70.0607 20.3666 118 139 133
0.0852033 -70.0607 20.3962 118 139 133
0.0864814 -71.0474 20.7136 118 139 133
0.0865594 -71.0474 20.7436 118 139 133
0.0866374 -71.0474 20.7737 117 139 133
0.0867154 -71.0474 20.8038 117 139 133
0.0906225 -74.1819 21.753 117 139 133
0.0907039 -74.1819 21.7844 117 139 133
0.0907854 -74.1819 21.8157 117 139 133
0.0908668 -74.1819 21.8471 117 139 133
0.0909483 -74.1819 21.8785 117 139 133
0.0910297 -74.1819 21.9099 117 139 133
0.0911111 -74.1819 21.9413 117 139 134
0.0911926 -74.1819 21.9727 118 140 134
0.0899512 -73.1068 21.6852 118 140 134
0.0900315 -73.1068 21.7161 118 141 135
0.0901117 -73.1068 21.7471 119 141 135
0.090192 -73.1068 21.778 119 142 136
0.0915998 -74.1819 22.1296 120 143 137
0.0916813 -74.1819 22.161 120 143 137
0.0878854 -71.0474 21.2547 121 144 138
0.0879634 -71.0474 21.2848 121 145 138
0.0868186 -70.0607 21.0188 122 145 139
0.0868955 -70.0607 21.0485 122 145 139
0.0869724 -70.0607 21.0781 122 146 139
0.0870494 -70.0607 21.1077 123 146 139
0.0871263 -70.0607 21.1374 123 146 140
0.0872032 -70.0607 21.167 123 146 140
0.0872801 -70.0607 21.1967 123 146 140
0.087357 -70.0607 21.2263 123 146 140
0.0912354 -73.1068 22.1802 123 146 139
0.0913157 -73.1068 22.2111 123 146 139
0.091396 -73.1068 22.242 123 146 139
0.0914762 -73.1068 22.273 123 145 138
0.0915565 -73.1068 22.3039 122 145 138
0.0916367 -73.1068 22.3348 122 144 137
0.0878955 -70.0607 21.4339 122 144 137
0.0879724 -70.0607 21.4635 121 143 136
0.0880493 -70.0607 21.4932 121 143 136
0.0881262 -70.0607 21.5228 121 142 136
0.0882031 -70.0607 21.5524 121 142 135
0.0882801 -70.0607 21.5821 120 142 135
0.088357 -70.0607 21.6117 120 141 135
0.0884339 -70.0607 21.6414 120 141 135
0.0885108 -70.0607 21.671 120 141 135
0.0885877 -70.0607 21.7007 120 141 135
0.0886647 -70.0607 21.7303 120 141 135
0.0887416 -70.0607 21.76 120 142 135
0.0888185 -70.0607 21.7896 120 142 135
0.0888954 -70.0607 21.8193 121 142 135
0.0889723 -70.0607 21.8489 121 142 135
0.0890493 -70.0607 21.8786 120 142 135
0.0891262 -70.0607 21.9082 120 141 134
0.0892031 -70.0607 21.9378 118 139 132
0.08928 -70.0607 21.9675 117 137 130
0.0893569 -70.0607 21.9971 115 135 128
0.0894338 -70.0607 22.0268 112 132 125
0.0895108 -70.0607 22.0564 110 129 122
0.0895877 -70.0607 22.0861 108 127 119
0.0896646 -70.0607 22.1157 105 123 116
0.0897415 -70.0607 22.1454 102 120 113
0.0898184 -70.0607 22.175 99 117 109
0.0898954 -70.0607 22.2047 97 113 106
0.0899723 -70.0607 22.2343 93 110 102
0.0900492 -70.0607 22.264 90 106 97
0.0901261 -70.0607 22.2936 88 102 93
0.090203 -70.0607 22.3233 85 98 89
0.09028 -70.0607 22.3529 82 94 85
0.0903569 -70.0607 22.3825 80 90 81
0.0904338 -70.0607 22.4122 78 87 78
0.0905107 -70.0607 22.4418 76 84 74
0.0905876 -70.0607 22.4715 74 81 71
0.108797 -84.0728 27.0014 72 78 68
0.10889 -84.0728 27.0369 70 75 66
0.088859 -84.063 6.08271 91 111 97
0.0889513 -84.063 6.11829 91 111 98
0.0890436 -84.063 6.15387 92 112 99
0.0891359 -84.063 6.18944 92 112 99
0.0892282 -84.063 6.22502 93 113 100
0.0893205 -84.063 6.26059 93 113 101
0.0894128 -84.063 6.29617 93 113 101
0.0895051 -84.063 6.33174 94 114 102
0.0895974 -84.063 6.36732 95 115 103
0.0896897 -84.063 6.4029 95 115 104
0.089782 -84.063 6.43847 96 116 104
0.0898743 -84.063 6.47405 96 116 105
0.0899666 -84.063 6.50962 96 116 105
0.0900589 -84.063 6.5452 96 116 105
0.0845168 -78.809 6.16948 96 116 105
0.0846033 -78.809 6.20283 96 116 105
0.0846899 -78.809 6.23618 96 116 106
0.0847764 -78.809 6.26953 96 117 106
0.0890365 -82.6849 6.61286 97 117 106
0.0891273 -82.6849 6.64786 97 117 106
0.0907051 -84.063 6.79423 97 117 106
0.0907974 -84.063 6.82981 96 116 105
0.0908897 -84.063 6.86538 96 115 105
0.090982 -84.063 6.90096 95 115 104
0.0910743 -84.063 6.93653 95 114 103
0.0911666 -84.063 6.97211 94 113 102
0.0912589 -84.063 7.00768 94 113 102
0.0913512 -84.063 7.04326 94 113 101
0.0914435 -84.063 7.07884 94 113 101
0.0915358 -84.063 7.11441 94 113 102
0.0916281 -84.063 7.14999 95 113 102
0.0917204 -84.063 7.18556 95 113 102
0.0918127 -84.063 7.22114 96 114 103
0.091905 -84.063 7.25671 97 114 103
0.0919973 -84.063 7.29229 97 115 104
0.0920896 -84.063 7.32787 98 115 105
0.0921819 -84.063 7.36344 99 116 105
0.0922742 -84.063 7.39902 99 117 106
0.0923665 -84.063 7.43459 100 117 107
0.0924588 -84.063 7.47017 101 118 108
0.0925511 -84.063 7.50574 102 119 108
0.0926434 -84.063 7.54132 102 120 109
0.0927357 -84.063 7.5769 103 120 110
0.092828 -84.063 7.61247 104 121 111
0.0929203 -84.063 7.64805 105 122 113
0.0930126 -84.063 7.68362 107 124 114
0.0931049 -84.063 7.7192 108 125 116
0.0931972 -84.063 7.75478 109 127 117
0.0932895 -84.063 7.79035 111 128 119
0.0933818 -84.063 7.82593 113 130 121
0.0934741 -84.063 7.8615 114 132 123
0.0935664 -84.063 7.89708 116 134 125
0.0936587 -84.063 7.93265 118 136 127
0.093751 -84.063 7.96823 120 138 128
0.0938434 -84.063 8.00381 122 140 130
0.0939357 -84.063 8.03938 124 142 132
0.094028 -84.063 8.07496 125 144 134
0.0941203 -84.063 8.11053 127 146 136
0.0942126 -84.063 8.14611 129 148 138
0.0943049 -84.063 8.18168 131 150 140
0.0928497 -82.6849 8.08255 133 152 141
0.0929405 -82.6849 8.11754 134 154 143
0.0945818 -84.063 8.28841 136 155 145
0.0946741 -84.063 8.32399 137 157 146
0.0947664 -84.063 8.35956 139 158 147
0.0948587 -84.063 8.39514 140 160 148
0.094951 -84.063 8.43072 141 161 149
0.0950433 -84.063 8.46629 142 162 150
0.0951356 -84.063 8.50187 142 162 151
0.0952279 -84.063 8.53744 143 163 152
0.0953202 -84.063 8.57302 143 164 152
0.0954125 -84.063 8.60859 144 164 152
0.0955048 -84.063 8.64417 144 164 152
0.0955971 -84.063 8.67975 144 164 153
0.0956894 -84.063 8.71532 144 164 153
0.0957817 -84.063 8.7509 144 164 153
0.0913086 -80.06 8.36807 144 164 153
0.0913965 -80.06 8.40195 144 164 153
0.090055 -78.809 8.30402 144 164 153
0.0901415 -78.809 8.33738 144 164 153
0.090228 -78.809 8.37073 144 164 153
0.0903146 -78.809 8.40408 144 164 153
0.0964278 -84.063 8.99993 144 164 153
0.0965201 -84.063 9.0355 144 164 153
0.0966124 -84.063 9.07108 143 164 153
0.0967047 -84.063 9.10665 143 164 152
0.096797 -84.063 9.14223 142 164 152
0.0968893 -84.063 9.17781 142 163 151
0.0969816 -84.063 9.21338 141 162 151
0.0970739 -84.063 9.24896 140 162 150
0.0971662 -84.063 9.28453 139 161 149
0.0972586 -84.063 9.32011 138 160 148
0.0973509 -84.063 9.35569 137 159 147
0.0974432 -84.063 9.39126 136 158 146
0.0975355 -84.063 9.42684 134 157 145
0.0976278 -84.063 9.46241 133 156 144
0.0930667 -80.06 9.0457 132 155 143
0.0931546 -80.06 9.07958 131 154 141
0.0932425 -80.06 9.11347 130 153 140
0.0933305 -80.06 9.14735 129 151 139
0.0919587 -78.809 9.03777 128 150 138
0.0920452 -78.809 9.07113 127 149 137
0.0935942 -80.06 9.24899 126 148 136
0.0936821 -80.06 9.28287 125 147 135
0.0923048 -78.809 9.17118 124 146 134
0.0923914 -78.809 9.20453 123 145 133
0.0924779 -78.809 9.23789 122 143 132
0.0925644 -78.809 9.27124 121 142 130
0.092651 -78.809 9.30459 120 141 130
0.0927375 -78.809 9.33794 120 141 129
0.092824 -78.809 9.3713 120 141 129
0.0929106 -78.809 9.40465 119 140 128
0.0929971 -78.809 9.438 119 139 128
0.0930836 -78.809 9.47135 118 138 127
0.0931702 -78.809 9.50471 117 137 127
0.0932567 -78.809 9.53806 116 136 126
0.0933432 -78.809 9.57141 115 134 124
0.0934298 -78.809 9.60476 113 132 122
0.0935163 -78.809 9.63811 111 130 120
0.0936028 -78.809 9.67147 109 127 118
0.0936894 -78.809 9.70482 106 124 116
0.0937759 -78.809 9.73817 104 122 113
0.0938624 -78.809 9.77152 102 119 111
0.093949 -78.809 9.80488 100 117 109
0.0940355 -78.809 9.83823 97 114 106
0.094122 -78.809 9.87158 95 112 104
0.0942086 -78.809 9.90493 93 109 102
0.0942951 -78.809 9.93828 90 107 99
0.0943816 -78.809 9.97164 88 104 97
0.0944682 -78.809 10.005 87 102 95
0.0945547 -78.809 10.0383 85 101 93
0.0946412 -78.809 10.0717 84 99 92
0.0947278 -78.809 10.105 82 98 91
0.0948143 -78.809 10.1384 81 96 89
0.1217 -96.9957 14.4073 87 102 91
0.121807 -96.9957 14.4484 88 102 92
0.115263 -91.705 13.6991 88 103 92
0.115364 -91.705 13.7379 88 103 92
0.113403 -90.0675 13.5307 88 103 93
0.113502 -90.0675 13.5688 89 103 93
0.113601 -90.0675 13.6069 89 104 93
0.1137 -90.0675 13.6451 89 104 93
0.115868 -91.705 13.932 89 104 94
0.115968 -91.705 13.9708 90 105 94
0.122765 -96.9957 14.8178 90 105 95
0.122872 -96.9957 14.8589 90 105 95
0.122978 -96.9957 14.8999 90 106 96
0.123085 -96.9957 14.941 91 106 96
0.123191 -96.9957 14.982 91 107 97
0.123298 -96.9957 15.0231 92 108 98
0.123404 -96.9957 15.0641 93 109 98
0.123511 -96.9957 15.1052 93 109 99
0.123617 -96.9957 15.1462 94 110 100
0.123724 -96.9957 15.1873 94 110 100
0.116358 -74.1732 19.995 54 65 57
0.116439 -74.1732 20.0264 57 68 61
0.116521 -74.1732 20.0578 61 73 65
0.116602 -74.1732 20.0892 65 77 70
0.116683 -74.1732 20.1206 69 82 75
0.116765 -74.1732 20.152 73 87 80
0.110663 -70.0525 19.1807 94 111 104
0.11074 -70.0525 19.2103 98 115 109
0.110816 -70.0525 19.2399 101 119 113
0.110893 -70.0525 19.2696 105 123 117
0.11097 -70.0525 19.2992 108 126 120
0.111047 -70.0525 19.3289 110 129 123
0.111124 -70.0525 19.3585 112 132 125
0.111201 -70.0525 19.3882 114 134 127
0.111278 -70.0525 19.4178 116 136 129
0.111355 -70.0525 19.4475 117 137 131
0.111432 -70.0525 19.4771 118 139 132
0.111509 -70.0525 19.5068 119 140 133
0.111586 -70.0525 19.5364 119 140 134
0.111663 -70.0525 19.5661 120 141 134
0.111739 -70.0525 19.5957 120 141 134
0.111816 -70.0525 19.6253 120 141 135
0.111893 -70.0525 19.655 120 141 135
0.11197 -70.0525 19.6846 120 141 134
0.112047 -70.0525 19.7143 119 141 134
0.112124 -70.0525 19.7439 119 140 134
0.112201 -70.0525 19.7736 119 140 133
0.112278 -70.0525 19.8032 118 140 133
0.112355 -70.0525 19.8329 118 139 133
0.112432 -70.0525 19.8625 118 139 133
0.112509 -70.0525 19.8922 118 139 132
0.112586 -70.0525 19.9218 118 139 132
0.112662 -70.0525 19.9515 118 139 132
0.112739 -70.0525 19.9811 118 139 132
0.112816 -70.0525 20.0108 118 139 133
0.112893 -70.0525 20.0404 118 139 133
0.11297 -70.0525 20.07 118 139 133
0.113047 -70.0525 20.0997 118 139 133
0.113124 -70.0525 20.1293 118 139 133
0.113201 -70.0525 20.159 118 139 133
0.113278 -70.0525 20.1886 118 139 133
0.113355 -70.0525 20.2183 118 139 133
0.115029 -71.0391 20.5331 118 139 133
0.115107 -71.0391 20.5632 118 139 133
0.115185 -71.0391 20.5932 118 139 133
0.115263 -71.0391 20.6233 118 139 133
0.113739 -70.0525 20.3665 118 139 133
0.113816 -70.0525 20.3962 117 139 133
0.118845 -73.0982 21.3139 117 139 133
0.118925 -73.0982 21.3448 117 138 133
0.119006 -73.0982 21.3758 117 138 133
0.119086 -73.0982 21.4067 117 138 133
0.120919 -74.1732 21.7529 117 138 133
0.121 -74.1732 21.7843 117 138 133
0.121081 -74.1732 21.8157 117 138 133
0.121163 -74.1732 21.8471 117 138 133
0.121244 -74.1732 21.8784 117 139 133
0.121326 -74.1732 21.9098 117 139 133
0.121407 -74.1732 21.9412 117 139 134
0.121489 -74.1732 21.9726 117 140 134
0.116433 -71.0391 21.0743 118 140 134
0.116511 -71.0391 21.1043 118 141 135
0.116589 -71.0391 21.1344 118 141 135
0.116667 -71.0391 21.1645 119 142 136
0.121896 -74.1732 22.1296 119 142 137
0.121977 -74.1732 22.161 120 143 137
0.12029 -73.0982 21.8707 121 144 138
0.12037 -73.0982 21.9017 121 144 138
0.115432 -70.0525 21.0187 121 145 139
0.115508 -70.0525 21.0484 122 145 139
0.115585 -70.0525 21.078 122 145 139
0.115662 -70.0525 21.1077 122 146 139
0.115739 -70.0525 21.1373 123 146 139
0.115816 -70.0525 21.167 123 146 139
0.115893 -70.0525 21.1966 123 146 139
0.11597 -70.0525 21.2263 123 146 139
0.117681 -71.0391 21.5553 123 146 139
0.117759 -71.0391 21.5853 123 146 139
0.117837 -71.0391 21.6154 122 145 138
0.117915 -71.0391 21.6455 122 145 138
0.117993 -71.0391 21.6755 122 144 138
0.118071 -71.0391 21.7056 122 144 137
0.116508 -70.0525 21.4338 121 143 137
0.116585 -70.0525 21.4634 121 143 136
0.116662 -70.0525 21.4931 121 142 136
0.116739 -70.0525 21.5227 120 142 136
0.116816 -70.0525 21.5524 120 141 135
0.116893 -70.0525 21.582 120 141 135
0.11697 -70.0525 21.6117 120 141 135
0.117047 -70.0525 21.6413 120 141 135
0.117124 -70.0525 21.671 120 141 134
0.117201 -70.0525 21.7006 120 141 135
0.117278 -70.0525 21.7302 120 141 135
0.117355 -70.0525 21.7599 120 141 135
0.117431 -70.0525 21.7895 120 142 135
0.117508 -70.0525 21.8192 120 142 135
0.117585 -70.0525 21.8488 120 142 135
0.117662 -70.0525 21.8785 120 142 135
0.117739 -70.0525 21.9081 120 141 134
0.117816 -70.0525 21.9378 119 140 133
0.117893 -70.0525 21.9674 117 138 131
0.11797 -70.0525 21.9971 115 135 128
0.118047 -70.0525 22.0267 113 133 126
0.118124 -70.0525 22.0564 110 130 123
0.118201 -70.0525 22.086 108 127 120
0.118278 -70.0525 22.1157 105 124 117
0.118354 -70.0525 22.1453 103 121 113
0.118431 -70.0525 22.1749 100 117 110
0.118508 -70.0525 22.2046 97 114 106
0.118585 -70.0525 22.2342 94 110 102
0.118662 -70.0525 22.2639 91 106 98
0.118739 -70.0525 22.2935 88 102 94
0.118816 -70.0525 22.3232 85 98 90
0.118893 -70.0525 22.3528 82 94 86
0.11897 -70.0525 22.3825 80 91 82
0.119047 -70.0525 22.4121 78 87 78
0.119124 -70.0525 22.4418 75 84 75
0.119201 -70.0525 22.4714 73 81 71
0.123195 -84.0531 6.08263 93 113 99
0.123287 -84.0531 6.1182 93 113 100
0.123379 -84.0531 6.15378 94 114 101
0.123471 -84.0531 6.18935 95 115 102
0.123564 -84.0531 6.22493 95 115 103
0.123656 -84.0531 6.2605 96 116 103
0.123748 -84.0531 6.29608 96 116 104
0.123841 -84.0531 6.33166 97 117 105
0.123933 -84.0531 6.36723 98 118 106
0.124025 -84.0531 6.40281 98 119 107
0.124118 -84.0531 6.43838 99 119 107
0.12421 -84.0531 6.47396 99 120 108
0.124302 -84.0531 6.50953 99 120 108
0.124394 -84.0531 6.54511 99 120 108
0.118559 -80.0506 6.26732 99 120 109
0.118647 -80.0506 6.3012 100 120 109
0.118735 -80.0506 6.33508 100 121 109
0.118823 -80.0506 6.36897 101 121 110
0.124856 -84.0531 6.72299 101 121 110
0.124948 -84.0531 6.75857 101 122 110
0.125041 -84.0531 6.79414 101 122 110
0.125133 -84.0531 6.82972 102 121 110
0.125225 -84.0531 6.86529 101 121 110
0.125318 -84.0531 6.90087 101 120 109
0.12541 -84.0531 6.93644 100 119 108
0.125502 -84.0531 6.97202 100 119 108
0.125594 -84.0531 7.0076 100 119 107
0.125687 -84.0531 7.04317 100 119 107
0.125779 -84.0531 7.07875 100 119 107
0.125871 -84.0531 7.11432 100 119 108
0.125964 -84.0531 7.1499 101 119 108
0.126056 -84.0531 7.18547 102 120 109
0.126148 -84.0531 7.22105 102 121 109
0.126241 -84.0531 7.25663 103 121 110
0.126333 -84.0531 7.2922 104 122 111
0.126425 -84.0531 7.32778 105 122 111
0.126517 -84.0531 7.36335 106 123 112
0.12661 -84.0531 7.39893 106 124 113
0.126702 -84.0531 7.4345 107 124 114
0.126794 -84.0531 7.47008 108 125 114
0.126887 -84.0531 7.50566 109 126 115
0.126979 -84.0531 7.54123 110 127 116
0.127071 -84.0531 7.57681 110 128 117
0.127164 -84.0531 7.61238 111 129 119
0.127256 -84.0531 7.64796 113 130 120
0.127348 -84.0531 7.68354 114 131 121
0.12744 -84.0531 7.71911 115 133 123
0.127533 -84.0531 7.75469 117 134 124
0.127625 -84.0531 7.79026 118 136 126
0.127717 -84.0531 7.82584 120 138 128
0.12781 -84.0531 7.86141 121 139 130
0.127902 -84.0531 7.89699 123 141 132
0.127994 -84.0531 7.93257 125 143 133
0.128087 -84.0531 7.96814 127 145 135
0.128179 -84.0531 8.00372 128 147 137
0.128271 -84.0531 8.03929 130 149 139
0.128363 -84.0531 8.07487 132 151 140
0.128456 -84.0531 8.11044 133 153 142
0.128548 -84.0531 8.14602 135 154 144
0.12864 -84.0531 8.1816 137 156 146
0.128733 -84.0531 8.21717 138 158 147
0.128825 -84.0531 8.25275 140 159 149
0.128917 -84.0531 8.28832 141 161 150
0.12901 -84.0531 8.3239 143 162 151
0.129102 -84.0531 8.35947 144 164 152
0.129194 -84.0531 8.39505 145 165 153
0.129287 -84.0531 8.43063 146 166 154
0.129379 -84.0531 8.4662 147 167 155
0.129471 -84.0531 8.50178 147 167 156
0.129563 -84.0531 8.53735 148 168 156
0.129656 -84.0531 8.57293 148 168 157
0.129748 -84.0531 8.60851 149 169 157
0.12984 -84.0531 8.64408 149 169 157
0.129933 -84.0531 8.67966 149 169 157
0.127893 -82.6752 8.57236 149 169 158
0.127984 -82.6752 8.60735 149 169 158
0.122071 -78.7998 8.23724 149 169 158
0.122158 -78.7998 8.27059 149 169 158
0.122245 -78.7998 8.30394 149 169 158
0.122331 -78.7998 8.33729 149 169 158
0.124361 -80.0506 8.50351 149 169 158
0.124449 -80.0506 8.53739 149 169 158
0.130763 -84.0531 8.99984 149 169 158
0.130856 -84.0531 9.03541 148 169 157
0.130948 -84.0531 9.07099 148 169 157
0.13104 -84.0531 9.10657 147 168 157
0.128983 -82.6752 8.99227 147 168 156
0.129074 -82.6752 9.02726 146 167 156
0.129164 -82.6752 9.06226 145 167 155
0.129255 -82.6752 9.09725 144 166 154
0.129346 -82.6752 9.13224 143 165 153
0.129437 -82.6752 9.16723 142 164 152
0.129528 -82.6752 9.20223 140 162 151
0.129618 -82.6752 9.23722 139 161 149
0.129709 -82.6752 9.27221 138 160 148
0.1298 -82.6752 9.3072 136 159 147
0.123802 -78.7998 8.90428 135 157 145
0.123889 -78.7998 8.93763 134 156 144
0.123975 -78.7998 8.97099 132 155 143
0.124062 -78.7998 9.00434 131 154 141
0.124148 -78.7998 9.03769 130 152 140
0.124235 -78.7998 9.07104 129 151 139
0.124321 -78.7998 9.10439 127 150 138
0.124408 -78.7998 9.13775 126 148 136
0.124494 -78.7998 9.1711 125 147 135
0.124581 -78.7998 9.20445 124 145 134
0.124667 -78.7998 9.2378 122 144 133
0.124754 -78.7998 9.27116 121 143 131
0.124841 -78.7998 9.30451 121 142 130
0.124927 -78.7998 9.33786 120 141 130
0.125014 -78.7998 9.37121 120 141 129
0.1251 -78.7998 9.40457 119 140 129
0.125187 -78.7998 9.43792 119 139 128
0.125273 -78.7998 9.47127 118 138 127
0.12536 -78.7998 9.50462 117 137 126
0.125446 -78.7998 9.53797 116 136 125
0.125533 -78.7998 9.57133 114 134 124
0.125619 -78.7998 9.60468 112 132 122
0.125706 -78.7998 9.63803 110 129 120
0.125792 -78.7998 9.67138 108 126 117
0.125879 -78.7998 9.70474 106 124 115
0.125965 -78.7998 9.73809 103 121 112
0.126052 -78.7998 9.77144 101 119 110
0.126139 -78.7998 9.80479 99 116 108
0.126225 -78.7998 9.83814 96 113 105
0.126312 -78.7998 9.8715 94 110 103
0.126398 -78.7998 9.90485 91 108 100
0.126485 -78.7998 9.9382 89 105 98
0.126571 -78.7998 9.97155 87 103 95
0.126658 -78.7998 10.0049 85 101 93
0.126744 -78.7998 10.0383 83 99 91
0.126831 -78.7998 10.0716 82 97 90
0.126917 -78.7998 10.105 80 96 88
0.127004 -78.7998 10.1383 79 94 87
0.158274 -95.1545 14.1354 88 102 91
0.158379 -95.1545 14.1757 88 103 92
0.149993 -90.0569 13.4544 89 103 93
0.150092 -90.0569 13.4925 89 104 93
0.150191 -90.0569 13.5306 89 104 93
0.15029 -90.0569 13.5687 89 104 93
0.150389 -90.0569 13.6068 89 104 94
0.150488 -90.0569 13.645 89 104 94
0.150587 -90.0569 13.6831 89 104 94
0.150685 -90.0569 13.7212 90 105 94
0.159319 -95.1545 14.5381 90 105 95
0.159424 -95.1545 14.5784 90 105 95
0.162596 -96.9843 14.8998 90 105 95
0.162703 -96.9843 14.9409 90 106 96
0.162809 -96.9843 14.9819 91 106 96
0.162916 -96.9843 15.023 91 107 97
0.163022 -96.9843 15.064 91 107 97
0.163129 -96.9843 15.1051 92 108 98
0.163235 -96.9843 15.1461 92 108 98
0.163342 -96.9843 15.1872 92 108 98
0.163448 -96.9843 15.2282 92 108 98
0.163555 -96.9843 15.2693 91 108 98
0.163661 -96.9843 15.3103 91 107 98
0.163768 -96.9843 15.3514 90 106 97
0.146654 -74.1645 19.9949 55 67 59
0.146735 -74.1645 20.0263 59 70 63
0.144689 -73.0897 19.767 63 75 67
0.144769 -73.0897 19.798 67 79 72
0.144849 -73.0897 19.8289 71 84 77
0.14493 -73.0897 19.8598 75 89 82
0.139276 -70.0442 19.1806 95 112 106
0.139352 -70.0442 19.2102 99 116 110
0.139429 -70.0442 19.2399 103 120 114
0.139506 -70.0442 19.2695 106 124 118
0.139583 -70.0442 19.2992 108 127 121
0.13966 -70.0442 19.3288 111 130 124
0.139737 -70.0442 19.3585 113 132 126
0.139814 -70.0442 19.3881 114 134 128
0.139891 -70.0442 19.4177 116 136 130
0.139968 -70.0442 19.4474 117 138 131
0.140045 -70.0442 19.477 118 139 132
0.140122 -70.0442 19.5067 119 140 133
0.140199 -70.0442 19.5363 119 140 134
0.140275 -70.0442 19.566 120 141 134
0.140352 -70.0442 19.5956 120 141 134
0.140429 -70.0442 19.6253 120 141 134
0.140506 -70.0442 19.6549 120 141 134
0.140583 -70.0442 19.6846 119 141 134
0.14066 -70.0442 19.7142 119 140 134
0.140737 -70.0442 19.7439 119 140 133
0.140814 -70.0442 19.7735 118 140 133
0.140891 -70.0442 19.8032 118 139 133
0.140968 -70.0442 19.8328 118 139 132
0.141045 -70.0442 19.8624 118 139 132
0.141122 -70.0442 19.8921 117 138 132
0.141199 -70.0442 19.9217 117 138 132
0.141275 -70.0442 19.9514 117 138 132
0.141352 -70.0442 19.981 117 138 132
0.139492 -69.0847 19.7366 117 138 132
0.139568 -69.0847 19.7658 117 138 132
0.141583 -70.0442 20.07 117 138 132
0.14166 -70.0442 20.0996 117 139 132
0.139795 -69.0847 19.8535 117 139 132
0.139871 -69.0847 19.8828 117 139 132
0.141891 -70.0442 20.1886 117 139 133
0.141968 -70.0442 20.2182 117 139 133
0.142045 -70.0442 20.2479 117 139 133
0.142122 -70.0442 20.2775 117 139 133
0.142198 -70.0442 20.3071 117 139 133
0.142275 -70.0442 20.3368 117 138 133
0.142352 -70.0442 20.3664 117 138 132
0.142429 -70.0442 20.3961 117 138 132
0.150889 -74.1645 21.6272 117 138 132
0.15097 -74.1645 21.6586 117 138 132
0.151052 -74.1645 21.69 117 138 132
0.151133 -74.1645 21.7214 117 138 132
0.151215 -74.1645 21.7528 117 138 132
0.151296 -74.1645 21.7842 117 138 133
0.151378 -74.1645 21.8156 117 138 133
0.151459 -74.1645 21.847 117 138 133
0.15154 -74.1645 21.8784 117 138 133
0.151622 -74.1645 21.9098 117 139 133
0.149505 -73.0897 21.6232 117 139 133
0.149585 -73.0897 21.6541 117 139 134
0.143429 -70.0442 20.7815 117 140 134
0.143506 -70.0442 20.8111 118 140 135
0.143583 -70.0442 20.8408 118 141 135
0.14366 -70.0442 20.8704 119 141 136
0.149986 -73.0897 21.8088 119 142 136
0.150067 -73.0897 21.8397 120 143 137
0.152355 -74.1645 22.1923 120 144 138
0.152436 -74.1645 22.2237 121 144 138
0.146073 -71.0308 21.3147 121 144 138
0.146151 -71.0308 21.3448 121 145 139
0.144198 -70.0442 21.078 122 145 139
0.144275 -70.0442 21.1076 122 145 139
0.144352 -70.0442 21.1372 122 146 139
0.144429 -70.0442 21.1669 122 146 139
0.144506 -70.0442 21.1965 122 146 139
0.144583 -70.0442 21.2262 123 146 139
0.14466 -70.0442 21.2558 122 145 139
0.144737 -70.0442 21.2855 122 145 139
0.144814 -70.0442 21.3151 122 145 138
0.144891 -70.0442 21.3448 122 144 138
0.144968 -70.0442 21.3744 122 144 137
0.145044 -70.0442 21.4041 121 143 137
0.145121 -70.0442 21.4337 121 143 137
0.145198 -70.0442 21.4634 121 142 136
0.145275 -70.0442 21.493 120 142 136
0.145352 -70.0442 21.5226 120 141 135
0.145429 -70.0442 21.5523 120 141 135
0.145506 -70.0442 21.5819 120 141 135
0.145583 -70.0442 21.6116 119 141 135
0.14566 -70.0442 21.6412 119 140 134
0.145737 -70.0442 21.6709 119 140 134
0.145814 -70.0442 21.7005 119 141 134
0.145891 -70.0442 21.7302 120 141 135
0.145967 -70.0442 21.7598 120 141 135
0.146044 -70.0442 21.7895 120 141 135
0.146121 -70.0442 21.8191 120 142 135
0.146198 -70.0442 21.8488 120 142 135
0.146275 -70.0442 21.8784 120 142 135
0.146352 -70.0442 21.9081 120 141 134
0.146429 -70.0442 21.9377 119 140 133
0.146506 -70.0442 21.9673 117 138 131
0.146583 -70.0442 21.997 115 136 129
0.14666 -70.0442 22.0266 113 133 126
0.146737 -70.0442 22.0563 111 130 123
0.146814 -70.0442 22.0859 108 127 120
0.146891 -70.0442 22.1156 106 124 117
0.146967 -70.0442 22.1452 103 121 114
0.147044 -70.0442 22.1749 100 118 111
0.147121 -70.0442 22.2045 97 114 107
0.147198 -70.0442 22.2342 94 111 103
0.147275 -70.0442 22.2638 91 107 99
0.147352 -70.0442 22.2935 88 103 95
0.147429 -70.0442 22.3231 85 99 90
0.147506 -70.0442 22.3528 83 95 86
0.147583 -70.0442 22.3824 80 91 82
0.14766 -70.0442 22.412 78 87 79
0.147737 -70.0442 22.4417 75 84 75
0.147814 -70.0442 22.4713 73 81 72
0.15753 -84.0432 6.08254 95 115 102
0.157622 -84.0432 6.11811 96 116 103
0.157715 -84.0432 6.15369 96 116 104
0.157807 -84.0432 6.18926 97 117 104
0.157899 -84.0432 6.22484 98 118 105
0.157992 -84.0432 6.26042 98 118 106
0.158084 -84.0432 6.29599 99 119 107
0.158176 -84.0432 6.33157 99 120 108
0.158269 -84.0432 6.36714 100 121 109
0.158361 -84.0432 6.40272 101 122 110
0.158453 -84.0432 6.43829 102 123 111
0.158545 -84.0432 6.47387 102 123 111
0.158638 -84.0432 6.50945 102 123 112
0.15873 -84.0432 6.54502 103 123 112
0.156219 -82.6655 6.47272 103 124 113
0.156309 -82.6655 6.50771 103 124 113
0.1564 -82.6655 6.5427 104 125 113
0.156491 -82.6655 6.5777 104 125 114
0.159192 -84.0432 6.7229 105 126 114
0.159284 -84.0432 6.75848 105 126 115
0.159376 -84.0432 6.79405 106 126 115
0.159468 -84.0432 6.82963 106 126 115
0.159561 -84.0432 6.8652 106 126 114
0.159653 -84.0432 6.90078 106 125 114
0.159745 -84.0432 6.93636 105 125 113
0.159838 -84.0432 6.97193 105 124 113
0.15993 -84.0432 7.00751 105 124 113
0.160022 -84.0432 7.04308 105 124 113
0.160115 -84.0432 7.07866 105 124 113
0.160207 -84.0432 7.11423 106 125 113
0.160299 -84.0432 7.14981 107 125 114
0.160391 -84.0432 7.18539 107 126 114
0.160484 -84.0432 7.22096 108 126 115
0.160576 -84.0432 7.25654 109 127 116
0.160668 -84.0432 7.29211 110 128 116
0.160761 -84.0432 7.32769 111 128 117
0.160853 -84.0432 7.36326 112 129 118
0.160945 -84.0432 7.39884 112 130 119
0.161038 -84.0432 7.43442 113 131 119
0.16113 -84.0432 7.46999 114 131 120
0.161222 -84.0432 7.50557 115 132 121
0.161314 -84.0432 7.54114 116 133 122
0.161407 -84.0432 7.57672 117 134 123
0.161499 -84.0432 7.6123 118 135 124
0.161591 -84.0432 7.64787 119 136 126
0.161684 -84.0432 7.68345 120 138 127
0.161776 -84.0432 7.71902 121 139 129
0.161868 -84.0432 7.7546 123 141 130
0.161961 -84.0432 7.79017 124 142 132
0.162053 -84.0432 7.82575 126 144 134
0.162145 -84.0432 7.86133 127 146 136
0.162238 -84.0432 7.8969 129 147 137
0.16233 -84.0432 7.93248 131 149 139
0.162422 -84.0432 7.96805 132 151 141
0.162514 -84.0432 8.00363 134 153 142
0.162607 -84.0432 8.0392 136 155 144
0.162699 -84.0432 8.07478 137 156 146
0.162791 -84.0432 8.11036 139 158 148
0.162884 -84.0432 8.14593 140 160 149
0.162976 -84.0432 8.18151 142 162 151
0.163068 -84.0432 8.21708 143 163 152
0.163161 -84.0432 8.25266 145 165 154
0.163253 -84.0432 8.28823 146 166 155
0.163345 -84.0432 8.32381 147 167 156
0.163437 -84.0432 8.35939 148 169 157
0.16353 -84.0432 8.39496 149 170 158
0.163622 -84.0432 8.43054 150 171 159
0.163714 -84.0432 8.46611 151 171 160
0.163807 -84.0432 8.50169 152 172 161
0.163899 -84.0432 8.53727 152 173 161
0.163991 -84.0432 8.57284 153 173 161
0.164084 -84.0432 8.60842 153 173 162
0.164176 -84.0432 8.64399 153 173 162
0.164268 -84.0432 8.67957 153 174 162
0.156534 -80.0412 8.30014 154 174 162
