ply
format ascii 1.0
comment author : Loiseau & Broux
comment object : 3d point Cloud
element vertex 1331
property float x
property float y
property float z
property uchar red
property uchar green
property uchar blue
end_header
-16.1152 -119.225 46.6011 93 109 103
-16.5863 -122.711 48.0137 92 108 102
-16.5862 -122.711 48.0636 91 108 102
-17.7164 -131.147 55.2638 131 151 143
-17.7162 -131.147 55.3172 131 151 143
-17.7161 -131.147 55.3706 131 151 143
-17.716 -131.147 55.4239 131 150 142
-17.7158 -131.147 55.4773 130 150 142
-17.7157 -131.147 55.5307 130 150 141
-17.715 -131.147 55.7975 129 149 140
-17.7149 -131.147 55.8509 128 149 140
-17.7147 -131.147 55.9042 128 149 139
-17.7146 -131.147 55.9576 128 148 139
-17.7144 -131.147 56.011 128 148 139
-17.7143 -131.147 56.0643 128 148 139
-17.7117 -131.147 57.0783 132 151 141
-17.7115 -131.147 57.1317 132 151 141
-17.7111 -131.147 57.2918 133 152 143
-17.711 -131.147 57.3452 134 153 144
-17.7106 -131.147 57.5053 137 156 147
-17.7104 -131.147 57.5586 137 157 148
-17.71 -131.147 57.7187 139 159 150
-17.7099 -131.147 57.7721 139 159 151
-17.7095 -131.147 57.9322 139 159 151
-17.7093 -131.147 57.9856 140 160 151
-17.7092 -131.147 58.0389 140 160 151
-17.7091 -131.147 58.0923 139 159 151
-17.7089 -131.147 58.1457 139 159 150
-17.7088 -131.147 58.199 139 159 150
-17.7086 -131.147 58.2524 139 159 151
-17.7085 -131.147 58.3058 140 159 151
-17.6683 -131.147 73.8358 130 150 135
-17.6682 -131.147 73.8892 130 150 135
-17.1286 -127.173 73.2544 130 149 135
-17.1285 -127.173 73.3061 130 149 135
-17.1283 -127.173 73.3579 130 149 135
-17.1282 -127.173 73.4096 129 149 135
-17.1275 -127.173 73.6684 129 148 135
-17.1274 -127.173 73.7201 129 148 135
-13.9207 -103.367 60.1306 128 148 135
-13.9206 -103.367 60.1727 128 148 135
-14.3445 -106.515 62.0487 128 148 135
-14.3444 -106.515 62.092 128 148 135
-14.7178 -109.289 63.7535 128 147 135
-14.7177 -109.289 63.798 128 147 135
-14.7176 -109.289 63.8424 127 147 135
-14.7175 -109.289 63.8869 127 147 135
-14.3414 -106.515 63.2623 57 70 60
-14.3412 -106.515 63.3057 54 66 57
-17.6575 -131.147 77.9985 51 63 54
-17.6574 -131.147 78.0518 48 60 51
-17.6572 -131.147 78.1052 45 58 49
-17.6571 -131.147 78.1586 43 56 48
-17.657 -131.147 78.2119 42 55 47
-17.6568 -131.147 78.2653 41 55 46
-17.6567 -131.147 78.3187 41 54 46
-17.6566 -131.147 78.372 41 54 46
-17.6564 -131.147 78.4254 41 55 46
-17.6563 -131.147 78.4788 41 55 46
-17.6561 -131.147 78.5321 41 55 47
-17.656 -131.147 78.5855 41 55 47
-17.6559 -131.147 78.6389 41 55 47
-17.6557 -131.147 78.6923 41 55 47
-17.6556 -131.147 78.7456 41 55 47
-17.6554 -131.147 78.799 41 55 47
-17.6553 -131.147 78.8524 41 55 47
-17.6552 -131.147 78.9057 41 55 47
-17.655 -131.147 78.9591 41 56 47
-17.6549 -131.147 79.0125 41 56 47
-17.6545 -131.147 79.1726 42 56 48
-17.6543 -131.147 79.2259 42 56 48
-17.6542 -131.147 79.2793 42 56 48
-17.6541 -131.147 79.3327 42 56 47
-17.6539 -131.147 79.386 42 56 47
-17.6538 -131.147 79.4394 41 55 47
-17.6537 -131.147 79.4928 41 55 46
-17.6535 -131.147 79.5461 41 55 46
-13.6383 -101.37 64.1662 45 56 48
-13.6382 -101.37 64.2075 42 53 45
-13.6381 -101.37 64.2487 39 49 42
-13.638 -101.37 64.29 37 47 39
-13.6379 -101.37 64.3312 35 45 37
-13.6378 -101.37 64.3725 33 44 36
-14.7031 -109.289 69.446 33 43 35
-14.703 -109.289 69.4905 32 43 35
-14.3297 -106.515 67.7701 32 42 34
-14.3296 -106.515 67.8135 32 42 34
-14.3295 -106.515 67.8568 32 42 34
-14.3293 -106.515 67.9002 31 42 34
-14.3198 -106.515 71.5844 76 97 84
-14.3197 -106.515 71.6278 75 96 83
-14.3196 -106.515 71.6711 74 95 82
-14.3195 -106.515 71.7145 74 94 82
-14.3194 -106.515 71.7578 73 94 82
-14.3192 -106.515 71.8012 73 94 82
-14.692 -109.289 73.7155 73 94 82
-14.6919 -109.289 73.7599 73 94 81
-17.5862 -130.318 42.9342 235 253 245
-17.586 -130.318 42.9873 235 253 245
-17.6958 -131.132 43.3093 235 253 245
-17.6957 -131.132 43.3627 235 253 245
-17.6955 -131.132 43.416 235 253 245
-17.6954 -131.132 43.4694 235 253 245
-16.0695 -119.211 46.1644 104 121 113
-16.0694 -119.211 46.2129 103 120 112
-16.0693 -119.211 46.2614 101 118 111
-16.0691 -119.211 46.3099 101 117 110
-16.069 -119.211 46.3584 100 116 109
-16.0689 -119.211 46.4069 98 115 108
-15.978 -118.538 46.193 97 114 107
-15.9778 -118.538 46.2412 96 112 106
-16.0685 -119.211 46.5525 94 111 104
-16.0684 -119.211 46.601 93 109 103
-16.1601 -119.892 46.9161 92 108 102
-16.1599 -119.892 46.9649 91 108 102
-17.6648 -131.132 55.2637 131 151 143
-17.6647 -131.132 55.317 131 151 143
-17.6646 -131.132 55.3704 131 151 143
-17.6644 -131.132 55.4238 130 150 142
-17.6643 -131.132 55.4772 130 150 142
-17.6642 -131.132 55.5305 130 150 141
-17.6635 -131.132 55.7974 128 149 140
-17.6633 -131.132 55.8507 128 148 139
-17.6632 -131.132 55.9041 128 148 139
-17.6631 -131.132 55.9575 128 148 139
-17.6629 -131.132 56.0108 128 148 139
-17.6628 -131.132 56.0642 128 148 138
-17.6601 -131.132 57.0782 132 152 142
-17.66 -131.132 57.1316 132 152 142
-17.6596 -131.132 57.2917 133 153 143
-17.6595 -131.132 57.345 134 154 144
-17.659 -131.132 57.5051 137 157 148
-17.6589 -131.132 57.5585 138 157 149
-17.6585 -131.132 57.7186 139 159 151
-17.6584 -131.132 57.772 139 159 151
-17.6579 -131.132 57.9321 139 160 151
-17.6578 -131.132 57.9854 140 160 152
-17.6577 -131.132 58.0388 140 160 151
-17.6575 -131.132 58.0922 140 159 151
-17.6574 -131.132 58.1455 139 159 151
-17.6572 -131.132 58.1989 139 159 150
-17.6571 -131.132 58.2523 139 159 151
-17.657 -131.132 58.3056 140 159 151
-17.6168 -131.132 73.8357 130 150 135
-17.6166 -131.132 73.889 130 150 135
-14.1591 -105.433 61.3392 128 148 135
-14.159 -105.433 61.3821 128 148 135
-14.5991 -108.711 63.3346 128 148 135
-14.599 -108.711 63.3788 128 147 135
-14.6749 -109.277 63.7534 128 147 135
-14.6748 -109.277 63.7978 127 147 135
-14.6746 -109.277 63.8423 127 147 135
-14.6745 -109.277 63.8868 127 146 135
-14.5959 -108.711 64.5734 57 70 60
-14.5958 -108.711 64.6176 54 66 57
-17.606 -131.132 77.9983 51 63 54
-17.6058 -131.132 78.0517 48 60 51
-17.6057 -131.132 78.1051 45 58 49
-17.6056 -131.132 78.1584 43 56 48
-17.6054 -131.132 78.2118 42 55 47
-17.6053 -131.132 78.2652 41 55 47
-17.6052 -131.132 78.3185 41 55 46
-17.605 -131.132 78.3719 41 55 46
-17.6049 -131.132 78.4253 41 55 46
-17.6047 -131.132 78.4786 41 55 46
-17.6046 -131.132 78.532 41 55 47
-17.6045 -131.132 78.5854 41 55 47
-17.6043 -131.132 78.6388 41 55 47
-17.6042 -131.132 78.6921 41 55 47
-17.6041 -131.132 78.7455 41 55 47
-17.6039 -131.132 78.7989 41 55 47
-17.6038 -131.132 78.8522 41 55 47
-17.6036 -131.132 78.9056 41 56 47
-17.6035 -131.132 78.959 41 56 47
-17.6034 -131.132 79.0123 42 56 47
-17.6029 -131.132 79.1724 42 57 48
-17.6028 -131.132 79.2258 42 57 48
-17.6027 -131.132 79.2792 42 56 48
-17.6025 -131.132 79.3325 42 56 47
-17.6024 -131.132 79.3859 42 56 47
-17.6023 -131.132 79.4393 42 56 47
-17.6021 -131.132 79.4926 41 55 46
-17.602 -131.132 79.546 41 55 46
-13.8664 -103.356 65.4305 45 56 48
-13.8663 -103.356 65.4725 42 53 45
-13.8662 -103.356 65.5146 39 50 42
-13.8661 -103.356 65.5567 37 47 39
-13.866 -103.356 65.5987 35 45 38
-13.8659 -103.356 65.6408 34 44 36
-14.6601 -109.277 69.4459 33 43 36
-14.66 -109.277 69.4904 32 43 35
-14.584 -108.711 69.1746 32 43 35
-14.5838 -108.711 69.2188 32 43 34
-14.5837 -108.711 69.2631 32 42 34
-14.5836 -108.711 69.3073 32 42 34
-14.5739 -108.711 73.0679 76 97 84
-14.5738 -108.711 73.1122 74 95 83
-14.5736 -108.711 73.1564 74 94 82
-14.5735 -108.711 73.2007 73 94 82
-14.5734 -108.711 73.2449 73 94 81
-14.5733 -108.711 73.2892 73 94 81
-14.6491 -109.277 73.7153 73 94 81
-14.649 -109.277 73.7598 73 94 81
-16.6069 -123.405 40.5607 235 253 245
-16.6068 -123.405 40.6109 235 253 245
-17.6445 -131.118 43.2024 235 253 245
-17.6444 -131.118 43.2558 235 253 245
-17.6443 -131.118 43.3092 235 253 245
-17.6441 -131.118 43.3625 235 253 245
-17.0908 -127.144 49.2419 104 121 113
-17.0907 -127.144 49.2936 102 119 112
-16.0224 -119.198 46.2613 101 118 111
-16.0223 -119.198 46.3098 100 117 110
-16.0222 -119.198 46.3583 100 116 109
-16.022 -119.198 46.4068 98 115 108
-16.0219 -119.198 46.4553 97 114 107
-16.0218 -119.198 46.5038 96 112 106
-16.0217 -119.198 46.5524 94 111 104
-16.0215 -119.198 46.6009 93 109 103
-16.0214 -119.198 46.6494 92 108 102
-16.0213 -119.198 46.6979 91 108 102
-17.6133 -131.118 55.2635 131 151 143
-17.6132 -131.118 55.3169 131 151 143
-17.613 -131.118 55.3703 131 151 143
-17.6129 -131.118 55.4237 130 150 142
-17.6128 -131.118 55.477 130 150 142
-17.6126 -131.118 55.5304 130 150 141
-17.6119 -131.118 55.7972 128 149 139
-17.6118 -131.118 55.8506 128 148 139
-17.6117 -131.118 55.904 128 148 139
-17.6115 -131.118 55.9573 128 148 139
-17.6086 -131.118 57.0781 133 152 142
-17.6085 -131.118 57.1314 133 152 142
-17.607 -131.118 57.7185 140 160 151
-17.6068 -131.118 57.7718 139 159 151
-17.6064 -131.118 57.9319 140 160 152
-17.6063 -131.118 57.9853 140 160 152
-17.6061 -131.118 58.0387 140 160 151
-17.606 -131.118 58.092 140 159 151
-17.6059 -131.118 58.1454 139 159 151
-17.6057 -131.118 58.1988 139 159 151
-17.6056 -131.118 58.2521 139 159 151
-17.6054 -131.118 58.3055 140 160 151
-17.6053 -131.118 58.3589 140 160 151
-17.6052 -131.118 58.4122 140 160 151
-14.0533 -104.894 58.6415 131 150 135
-14.0532 -104.894 58.6842 131 150 135
-14.0531 -104.894 58.7269 131 150 135
-14.053 -104.894 58.7696 131 150 135
-16.0569 -119.879 68.5802 130 150 135
-16.0567 -119.879 68.629 130 149 135
-17.5616 -131.118 75.2231 130 149 135
-17.5615 -131.118 75.2765 130 149 135
-17.0281 -127.144 73.4611 129 149 135
-17.028 -127.144 73.5129 129 149 135
-13.8395 -103.344 60.1304 128 148 135
-13.8394 -103.344 60.1725 128 148 135
-14.5564 -108.699 63.3344 128 147 135
-14.5562 -108.699 63.3787 128 147 135
-14.5561 -108.699 63.4229 128 147 135
-14.556 -108.699 63.4672 127 147 135
-14.5559 -108.699 63.5114 127 147 135
-14.5558 -108.699 63.5557 127 146 135
-14.5531 -108.699 64.5732 57 70 60
-14.553 -108.699 64.6175 54 67 57
-17.5545 -131.118 77.9982 51 63 54
-17.5543 -131.118 78.0516 48 61 51
-17.5542 -131.118 78.1049 45 58 49
-17.554 -131.118 78.1583 43 56 48
-17.5539 -131.118 78.2117 42 55 47
-17.5538 -131.118 78.265 41 55 47
-17.5536 -131.118 78.3184 41 55 46
-17.5535 -131.118 78.3718 41 55 46
-17.5534 -131.118 78.4251 41 55 46
-17.5532 -131.118 78.4785 41 55 47
-17.5531 -131.118 78.5319 41 55 47
-17.5529 -131.118 78.5853 41 55 47
-17.5528 -131.118 78.6386 41 55 47
-17.5527 -131.118 78.692 41 55 47
-17.5525 -131.118 78.7454 41 55 47
-17.5524 -131.118 78.7987 41 56 47
-17.5522 -131.118 78.8521 41 56 47
-17.5521 -131.118 78.9055 41 56 47
-17.552 -131.118 78.9588 41 56 47
-17.5518 -131.118 79.0122 42 56 47
-17.5514 -131.118 79.1723 42 57 48
-17.5513 -131.118 79.2257 42 57 48
-17.5511 -131.118 79.279 42 57 48
-17.551 -131.118 79.3324 42 56 47
-17.5509 -131.118 79.3858 42 56 47
-17.5507 -131.118 79.4391 42 56 47
-17.5506 -131.118 79.4925 41 55 47
-17.5504 -131.118 79.5459 41 55 46
-14.2469 -106.492 67.4232 45 56 49
-14.2468 -106.492 67.4665 42 53 45
-14.3193 -107.035 67.8543 39 50 42
-14.3192 -107.035 67.8979 37 47 39
-15.1705 -113.399 71.9812 35 45 38
-15.1704 -113.399 72.0273 34 44 37
-14.6172 -109.265 69.4458 33 44 36
-14.6171 -109.265 69.4903 33 43 35
-14.617 -109.265 69.5348 32 43 35
-14.6169 -109.265 69.5792 32 43 35
-14.6167 -109.265 69.6237 32 43 35
-14.6166 -109.265 69.6682 32 43 34
-13.5573 -101.347 64.661 32 43 34
-13.5572 -101.347 64.7023 32 43 34
-13.4834 -100.86 67.7164 78 99 87
-13.4833 -100.86 67.7575 77 98 85
-14.6068 -109.265 73.4484 75 96 83
-14.6067 -109.265 73.4929 74 95 82
-14.6831 -109.837 73.9224 73 94 82
-14.683 -109.837 73.9671 73 94 81
-14.6064 -109.265 73.6263 73 94 81
-14.6063 -109.265 73.6708 73 94 81
-14.6061 -109.265 73.7152 73 94 81
-14.606 -109.265 73.7597 73 94 81
-17.0612 -127.13 41.3756 235 253 245
-17.0611 -127.13 41.4274 235 253 245
-16.5584 -123.391 40.5605 235 253 245
-16.5583 -123.391 40.6108 235 253 245
-17.593 -131.103 43.2023 235 253 245
-17.5929 -131.103 43.2557 235 253 245
-17.5927 -131.103 43.309 235 253 245
-17.5926 -131.103 43.3624 235 253 245
-15.9756 -119.185 46.2611 101 118 111
-15.9754 -119.185 46.3097 100 117 110
-15.9753 -119.185 46.3582 100 116 109
-15.9752 -119.185 46.4067 98 115 108
-15.9751 -119.185 46.4552 97 114 107
-15.9749 -119.185 46.5037 96 112 106
-15.9748 -119.185 46.5522 94 111 104
-15.9747 -119.185 46.6008 93 109 103
-15.9746 -119.185 46.6493 92 108 102
-15.9744 -119.185 46.6978 91 108 102
-17.5618 -131.103 55.2634 131 151 143
-17.5616 -131.103 55.3168 131 151 143
-17.5615 -131.103 55.3702 131 151 142
-17.5614 -131.103 55.4235 130 150 142
-17.5612 -131.103 55.4769 130 150 141
-17.5611 -131.103 55.5303 129 149 141
-17.5604 -131.103 55.7971 128 148 139
-17.5603 -131.103 55.8505 128 148 139
-17.5601 -131.103 55.9038 128 148 139
-17.56 -131.103 55.9572 128 148 138
-17.5571 -131.103 57.0779 133 153 143
-17.5569 -131.103 57.1313 133 153 143
-17.5554 -131.103 57.7183 140 160 151
-17.5553 -131.103 57.7717 140 160 151
-17.5549 -131.103 57.9318 140 160 152
-17.5547 -131.103 57.9852 140 160 152
-17.5546 -131.103 58.0385 140 160 152
-17.5545 -131.103 58.0919 140 160 151
-17.5543 -131.103 58.1453 139 159 151
-17.5542 -131.103 58.1986 139 159 151
-17.554 -131.103 58.252 140 159 151
-17.5539 -131.103 58.3054 140 160 151
-17.5538 -131.103 58.3587 140 160 151
-17.5536 -131.103 58.4121 140 160 151
-17.1884 -128.69 73.6289 130 149 135
-17.1882 -128.69 73.6813 130 149 135
-17.5101 -131.103 75.223 130 149 135
-17.51 -131.103 75.2763 130 149 135
-14.2189 -106.48 62.0484 128 147 135
-14.2188 -106.48 62.0917 128 147 135
-14.2187 -106.48 62.135 128 147 135
-14.2186 -106.48 62.1784 127 147 135
-14.2185 -106.48 62.2217 127 147 135
-14.2184 -106.48 62.2651 127 146 135
-14.2158 -106.48 63.262 57 70 60
-14.2157 -106.48 63.3053 54 67 57
-17.5029 -131.103 77.9981 51 64 54
-17.5028 -131.103 78.0514 48 61 51
-17.5026 -131.103 78.1048 46 58 49
-17.5025 -131.103 78.1582 43 56 48
-17.5024 -131.103 78.2115 42 55 47
-17.5022 -131.103 78.2649 42 55 47
-17.5021 -131.103 78.3183 41 55 46
-17.502 -131.103 78.3716 41 55 46
-17.5018 -131.103 78.425 41 55 46
-17.5017 -131.103 78.4784 41 55 47
-17.5015 -131.103 78.5318 41 55 47
-17.5014 -131.103 78.5851 41 55 47
-17.5013 -131.103 78.6385 41 55 47
-17.5011 -131.103 78.6919 41 55 47
-17.501 -131.103 78.7452 41 55 47
-17.5009 -131.103 78.7986 41 56 47
-17.5007 -131.103 78.852 41 56 47
-17.5006 -131.103 78.9053 41 56 47
-17.5004 -131.103 78.9587 41 56 47
-17.5003 -131.103 79.0121 42 56 47
-17.4999 -131.103 79.1722 42 57 48
-17.4997 -131.103 79.2255 42 57 48
-17.4996 -131.103 79.2789 42 56 48
-17.4995 -131.103 79.3323 42 56 47
-17.4993 -131.103 79.3856 42 56 47
-17.4992 -131.103 79.439 42 56 47
-17.4991 -131.103 79.4924 41 55 46
-17.4989 -131.103 79.5457 41 55 46
-14.4994 -108.686 68.8204 45 57 49
-14.4993 -108.686 68.8647 42 53 45
-14.8848 -111.577 70.7416 39 50 42
-14.8847 -111.577 70.787 37 47 40
-14.5743 -109.252 69.4457 33 44 36
-14.5741 -109.252 69.4902 33 44 36
-14.574 -109.252 69.5347 33 44 35
-14.5739 -109.252 69.5791 33 43 35
-14.5738 -109.252 69.6236 32 43 35
-14.5737 -109.252 69.6681 32 43 35
-13.7839 -103.332 65.935 32 43 35
-13.7838 -103.332 65.9771 32 43 35
-13.4438 -100.848 67.7163 78 99 86
-13.4437 -100.848 67.7574 76 97 85
-14.5639 -109.252 73.4483 75 96 83
-14.5638 -109.252 73.4928 74 95 82
-14.9531 -112.174 75.5035 73 94 81
-14.9529 -112.174 75.5491 73 93 81
-14.5634 -109.252 73.6262 72 93 81
-14.5633 -109.252 73.6707 72 93 81
-14.5632 -109.252 73.7151 72 93 81
-14.5631 -109.252 73.7596 72 93 80
-15.5338 -116.536 78.7243 72 93 80
-15.5337 -116.536 78.7718 72 93 80
-17.1139 -127.891 42.0443 235 253 245
-17.1138 -127.891 42.0964 235 253 245
-15.9287 -119.171 46.261 101 118 111
-15.9286 -119.171 46.3095 100 117 110
-15.9285 -119.171 46.3581 99 116 109
-15.9283 -119.171 46.4066 98 115 108
-15.9282 -119.171 46.4551 97 114 107
-15.9281 -119.171 46.5036 96 112 106
-15.928 -119.171 46.5521 94 111 104
-15.9278 -119.171 46.6006 93 109 103
-15.9277 -119.171 46.6492 92 108 102
-15.9276 -119.171 46.6977 91 108 102
-17.51 -131.088 55.37 131 150 142
-17.5098 -131.088 55.4234 130 150 142
-17.5097 -131.088 55.4768 130 150 141
-17.5096 -131.088 55.5301 129 149 140
-17.5089 -131.088 55.797 128 148 139
-17.5087 -131.088 55.8503 128 148 139
-17.5061 -131.088 56.8643 132 152 142
-17.506 -131.088 56.9177 133 152 142
-17.5056 -131.088 57.0778 134 154 143
-17.5054 -131.088 57.1312 134 154 143
-17.5039 -131.088 57.7182 140 160 151
-17.5038 -131.088 57.7716 140 160 151
-17.5033 -131.088 57.9317 140 160 152
-17.5032 -131.088 57.985 140 160 152
-17.5031 -131.088 58.0384 140 160 152
-17.5029 -131.088 58.0918 140 160 151
-17.5028 -131.088 58.1451 139 159 151
-17.5027 -131.088 58.1985 139 159 151
-17.5025 -131.088 58.2519 140 160 151
-17.5024 -131.088 58.3052 140 160 151
-17.5022 -131.088 58.3586 140 160 151
-17.5021 -131.088 58.412 140 160 151
-13.7581 -103.321 60.2143 128 147 135
-13.758 -103.321 60.2564 128 147 135
-13.7578 -103.321 60.2984 127 147 135
-13.7577 -103.321 60.3405 127 147 135
-13.7576 -103.321 60.3826 127 146 135
-13.7575 -103.321 60.4246 127 146 135
-13.755 -103.321 61.3921 57 70 60
-13.7549 -103.321 61.4341 54 67 57
-17.4514 -131.088 77.9979 51 64 54
-17.4513 -131.088 78.0513 48 61 51
-17.4511 -131.088 78.1047 46 58 49
-17.451 -131.088 78.158 43 56 48
-17.4508 -131.088 78.2114 42 55 47
-17.4507 -131.088 78.2648 42 55 47
-17.4506 -131.088 78.3181 41 55 46
-17.4504 -131.088 78.3715 41 55 46
-17.4503 -131.088 78.4249 41 55 46
-17.4501 -131.088 78.4783 41 55 46
-17.45 -131.088 78.5316 41 55 46
-17.4499 -131.088 78.585 41 55 47
-17.4497 -131.088 78.6384 41 55 47
-17.4496 -131.088 78.6917 41 55 47
-17.4495 -131.088 78.7451 41 55 47
-17.4493 -131.088 78.7985 41 55 47
-17.4492 -131.088 78.8518 41 55 47
-17.449 -131.088 78.9052 41 55 47
-17.4489 -131.088 78.9586 41 56 47
-17.4488 -131.088 79.0119 41 56 47
-17.4484 -131.088 79.172 42 56 47
-17.4482 -131.088 79.2254 42 56 47
-17.4481 -131.088 79.2788 42 56 47
-17.4479 -131.088 79.3321 42 56 47
-17.4478 -131.088 79.3855 42 56 47
-17.4477 -131.088 79.4389 41 55 47
-17.4475 -131.088 79.4922 41 55 46
-17.4474 -131.088 79.5456 41 55 46
-14.532 -109.24 69.1788 46 57 49
-14.5319 -109.24 69.2232 42 53 46
-16.4124 -123.377 78.2318 40 50 43
-16.4122 -123.377 78.282 37 48 40
-14.5313 -109.24 69.4456 34 45 37
-14.5312 -109.24 69.4901 33 44 36
-14.5311 -109.24 69.5345 33 44 36
-14.531 -109.24 69.579 33 44 36
-14.4556 -108.674 69.2627 33 44 35
-14.4554 -108.674 69.307 33 44 35
-14.0903 -105.93 67.5999 33 44 35
-14.0902 -105.93 67.6431 32 44 35
-13.4042 -100.837 67.7162 78 99 86
-13.4041 -100.837 67.7573 76 97 84
-14.597 -109.812 73.8327 75 95 83
-14.5969 -109.812 73.8774 73 94 82
-15.4032 -115.879 78.0062 73 93 81
-15.4031 -115.879 78.0534 72 93 81
-14.5965 -109.812 74.0115 72 93 80
-14.5964 -109.812 74.0563 72 93 80
-14.5203 -109.24 73.715 72 93 80
-14.5201 -109.24 73.7595 72 93 80
-14.52 -109.24 73.804 72 93 80
-14.5199 -109.24 73.8484 72 93 80
-15.8819 -119.158 46.2609 101 118 110
-15.8817 -119.158 46.3094 100 117 110
-15.8816 -119.158 46.3579 99 116 109
-15.8815 -119.158 46.4065 98 115 108
-15.8814 -119.158 46.455 97 114 107
-15.8812 -119.158 46.5035 96 112 106
-15.8811 -119.158 46.552 94 111 104
-15.881 -119.158 46.6005 93 109 103
-15.8809 -119.158 46.649 92 108 102
-15.8807 -119.158 46.6976 91 107 102
-17.4584 -131.074 55.3699 130 150 142
-17.4583 -131.074 55.4233 130 150 141
-17.4582 -131.074 55.4766 130 149 141
-17.458 -131.074 55.53 129 149 140
-17.4573 -131.074 55.7968 128 148 139
-17.4572 -131.074 55.8502 128 148 138
-17.4546 -131.074 56.8642 133 153 143
-17.4544 -131.074 56.9176 133 153 143
-17.454 -131.074 57.0777 135 154 144
-17.4539 -131.074 57.131 135 154 144
-17.4524 -131.074 57.7181 140 161 152
-17.4522 -131.074 57.7714 140 160 151
-17.4518 -131.074 57.9315 140 160 152
-17.4517 -131.074 57.9849 140 161 152
-17.4515 -131.074 58.0383 140 160 152
-17.4514 -131.074 58.0916 140 160 151
-17.4513 -131.074 58.145 140 159 151
-17.4511 -131.074 58.1984 139 159 151
-17.451 -131.074 58.2517 140 160 151
-17.4508 -131.074 58.3051 140 160 151
-17.4507 -131.074 58.3585 140 160 151
-17.4506 -131.074 58.4118 140 160 151
-15.0514 -113.361 66.3498 127 146 134
-15.0513 -113.361 66.396 126 146 134
-17.3999 -131.074 77.9978 51 63 54
-17.3997 -131.074 78.0512 48 61 51
-17.3996 -131.074 78.1045 45 58 49
-17.3994 -131.074 78.1579 43 56 48
-17.3993 -131.074 78.2113 42 55 47
-17.3992 -131.074 78.2646 41 55 46
-17.399 -131.074 78.318 41 54 46
-17.3989 -131.074 78.3714 41 55 46
-17.3988 -131.074 78.4248 41 55 46
-17.3986 -131.074 78.4781 41 55 46
-17.3985 -131.074 78.5315 41 55 46
-17.3983 -131.074 78.5849 41 55 46
-17.3982 -131.074 78.6382 41 55 46
-17.3981 -131.074 78.6916 41 55 46
-17.3979 -131.074 78.745 41 55 46
-17.3978 -131.074 78.7983 41 55 46
-17.3977 -131.074 78.8517 41 55 46
-17.3975 -131.074 78.9051 41 55 46
-17.3974 -131.074 78.9584 41 55 46
-17.3972 -131.074 79.0118 41 55 47
-17.3968 -131.074 79.1719 41 56 47
-17.3967 -131.074 79.2253 42 56 47
-17.3965 -131.074 79.2786 42 56 47
-17.3964 -131.074 79.332 42 56 47
-17.3963 -131.074 79.3854 41 55 46
-17.3961 -131.074 79.4387 41 55 46
-17.396 -131.074 79.4921 41 55 46
-17.3959 -131.074 79.5455 41 54 46
-14.4891 -109.228 69.1786 46 57 49
-14.4889 -109.228 69.2231 43 54 46
-14.4884 -109.228 69.4455 34 45 37
-14.4883 -109.228 69.49 33 45 36
-14.4881 -109.228 69.5344 33 44 36
-14.488 -109.228 69.5789 33 44 36
-14.1202 -106.456 67.8563 33 44 36
-14.1201 -106.456 67.8996 33 44 36
-14.0487 -105.918 67.5998 33 44 35
-14.0485 -105.918 67.643 33 44 35
-13.3645 -100.826 67.7161 77 98 86
-13.3644 -100.826 67.7572 76 97 84
-14.8651 -112.149 75.4119 74 95 82
-14.865 -112.149 75.4576 73 94 81
-15.7047 -118.485 79.769 72 93 81
-15.7046 -118.485 79.8172 72 93 80
-14.8646 -112.149 75.5946 72 93 80
-14.8645 -112.149 75.6402 72 92 80
-14.4773 -109.228 73.7149 72 92 80
-14.4772 -109.228 73.7594 72 92 80
-14.4771 -109.228 73.8039 72 92 80
-14.477 -109.228 73.8483 72 92 80
-16.415 -123.35 39.7565 235 253 245
-16.4148 -123.35 39.8067 235 253 245
-15.835 -119.144 46.2608 101 118 110
-15.8349 -119.144 46.3093 100 117 110
-15.8348 -119.144 46.3578 99 116 109
-15.8346 -119.144 46.4063 98 115 108
-15.8345 -119.144 46.4548 97 114 107
-15.8344 -119.144 46.5034 96 112 106
-15.8343 -119.144 46.5519 94 111 104
-15.8341 -119.144 46.6004 93 109 103
-15.834 -119.144 46.6489 92 108 102
-15.8339 -119.144 46.6974 91 107 102
-17.4069 -131.059 55.3698 130 150 142
-17.4068 -131.059 55.4231 130 150 141
-17.4066 -131.059 55.4765 129 149 140
-17.4065 -131.059 55.5299 129 149 140
-17.4064 -131.059 55.5832 128 148 139
-17.4062 -131.059 55.6366 128 148 139
-17.4058 -131.059 55.7967 128 148 138
-17.4057 -131.059 55.8501 128 148 138
-17.403 -131.059 56.8641 134 154 143
-17.4029 -131.059 56.9174 134 154 144
-17.4025 -131.059 57.0775 135 155 145
-17.4024 -131.059 57.1309 135 155 145
-17.4008 -131.059 57.7179 141 161 152
-17.4007 -131.059 57.7713 140 160 151
-17.4003 -131.059 57.9314 140 160 152
-17.4001 -131.059 57.9848 140 161 152
-17.4 -131.059 58.0381 140 161 152
-17.3999 -131.059 58.0915 140 160 151
-17.3997 -131.059 58.1449 140 160 151
-17.3996 -131.059 58.1982 140 160 151
-17.3995 -131.059 58.2516 140 160 151
-17.3993 -131.059 58.305 140 160 151
-17.3992 -131.059 58.3583 140 160 151
-17.399 -131.059 58.4117 140 160 151
-17.3989 -131.059 58.4651 140 160 151
-17.3988 -131.059 58.5185 140 160 151
-14.8553 -112.136 62.1698 124 143 130
-14.8552 -112.136 62.2154 125 144 130
-14.101 -106.444 59.1006 126 145 131
-14.1009 -106.444 59.144 127 145 132
-14.1008 -106.444 59.1873 127 146 132
-14.1007 -106.444 59.2307 128 146 133
-14.0293 -105.906 58.9746 128 147 133
-14.0292 -105.906 59.0178 129 148 134
-15.8682 -119.825 68.6773 130 149 135
-15.868 -119.825 68.7261 130 149 135
-15.7777 -119.144 68.3841 130 149 135
-15.7776 -119.144 68.4327 130 149 135
-13.6762 -103.298 60.4665 126 146 134
-13.6761 -103.298 60.5085 126 146 134
-17.3483 -131.059 77.9977 51 63 54
-17.3482 -131.059 78.051 48 60 51
-17.3481 -131.059 78.1044 45 58 49
-17.3479 -131.059 78.1578 43 56 47
-17.3478 -131.059 78.2111 42 55 47
-17.3476 -131.059 78.2645 41 54 46
-17.3475 -131.059 78.3179 41 54 46
-17.3474 -131.059 78.3712 41 54 46
-17.3472 -131.059 78.4246 41 54 46
-17.3471 -131.059 78.478 41 54 46
-17.3469 -131.059 78.5314 41 54 46
-17.3468 -131.059 78.5847 41 54 46
-17.3467 -131.059 78.6381 41 55 46
-17.3465 -131.059 78.6915 41 55 46
-17.3464 -131.059 78.7448 41 55 46
-17.3463 -131.059 78.7982 41 55 46
-17.3461 -131.059 78.8516 41 54 46
-17.346 -131.059 78.9049 41 55 46
-17.3458 -131.059 78.9583 41 55 46
-17.3457 -131.059 79.0117 41 55 46
-17.3456 -131.059 79.065 41 55 46
-17.3454 -131.059 79.1184 41 55 46
-17.3453 -131.059 79.1718 41 55 46
-17.3452 -131.059 79.2251 41 55 46
-17.345 -131.059 79.2785 41 55 46
-17.3449 -131.059 79.3319 41 55 46
-17.3447 -131.059 79.3852 41 55 46
-17.3446 -131.059 79.4386 41 54 46
-17.3445 -131.059 79.492 40 54 45
-17.3443 -131.059 79.5453 40 54 45
-14.4461 -109.216 69.1785 46 57 49
-14.446 -109.216 69.223 43 54 46
-14.4454 -109.216 69.4454 34 45 37
-14.4453 -109.216 69.4898 34 45 37
-14.4452 -109.216 69.5343 33 45 36
-14.4451 -109.216 69.5788 33 45 36
-13.7299 -103.809 66.1766 33 44 36
-13.7298 -103.809 66.2188 33 44 36
-13.662 -103.298 65.9347 33 44 36
-13.6619 -103.298 65.9768 33 44 36
-13.3249 -100.815 67.716 77 98 85
-13.3248 -100.815 67.7571 75 96 84
-15.3123 -115.853 77.9116 74 95 82
-15.3122 -115.853 77.9588 73 93 81
-15.7471 -119.144 80.2221 72 93 80
-15.747 -119.144 80.2706 72 92 80
-15.3118 -115.853 78.1003 71 92 80
-15.3117 -115.853 78.1475 71 92 80
-14.5099 -109.788 74.1007 71 92 79
-14.5098 -109.788 74.1454 71 92 79
-14.4341 -109.216 73.8037 71 92 79
-14.434 -109.216 73.8482 71 92 79
-15.7882 -119.131 46.2607 101 118 110
-15.788 -119.131 46.3092 100 117 110
-15.7879 -119.131 46.3577 99 116 109
-15.7878 -119.131 46.4062 98 115 108
-15.7877 -119.131 46.4547 97 114 107
-15.7875 -119.131 46.5032 96 112 106
-15.7874 -119.131 46.5518 94 111 104
-15.7873 -119.131 46.6003 93 109 103
-15.7872 -119.131 46.6488 92 108 102
-15.787 -119.131 46.6973 91 107 102
-17.3554 -131.044 55.3696 130 150 141
-17.3552 -131.044 55.423 129 149 140
-17.3551 -131.044 55.4764 129 149 140
-17.355 -131.044 55.5297 128 148 139
-17.3548 -131.044 55.5831 128 148 139
-17.3547 -131.044 55.6365 128 148 138
-17.3543 -131.044 55.7966 128 148 138
-17.3541 -131.044 55.8499 128 148 138
-17.3515 -131.044 56.8639 134 154 144
-17.3514 -131.044 56.9173 135 155 145
-17.351 -131.044 57.0774 136 156 145
-17.3508 -131.044 57.1308 136 156 145
-17.3493 -131.044 57.7178 141 161 152
-17.3492 -131.044 57.7712 140 160 151
-17.3487 -131.044 57.9313 140 161 152
-17.3486 -131.044 57.9846 141 161 152
-17.3485 -131.044 58.038 141 161 152
-17.3483 -131.044 58.0914 140 160 151
-17.3482 -131.044 58.1447 140 160 151
-17.3481 -131.044 58.1981 140 160 151
-17.3479 -131.044 58.2515 140 160 151
-17.3478 -131.044 58.3048 140 160 151
-17.3476 -131.044 58.3582 140 160 151
-17.3475 -131.044 58.4116 140 160 151
-17.3474 -131.044 58.465 140 160 151
-17.3472 -131.044 58.5183 140 160 151
-17.2968 -131.044 77.9975 51 63 54
-17.2967 -131.044 78.0509 48 60 51
-17.2965 -131.044 78.1043 45 58 49
-17.2964 -131.044 78.1576 43 56 47
-17.2962 -131.044 78.211 42 55 46
-17.2961 -131.044 78.2644 41 54 46
-17.296 -131.044 78.3177 41 54 45
-17.2958 -131.044 78.3711 40 54 45
-17.2957 -131.044 78.4245 40 54 45
-17.2956 -131.044 78.4779 40 54 45
-17.2954 -131.044 78.5312 40 54 45
-17.2953 -131.044 78.5846 40 54 45
-17.2951 -131.044 78.638 40 54 45
-17.295 -131.044 78.6913 40 54 45
-17.2949 -131.044 78.7447 40 54 45
-17.2947 -131.044 78.7981 40 54 45
-17.2946 -131.044 78.8514 40 54 45
-17.2944 -131.044 78.9048 40 54 45
-17.2943 -131.044 78.9582 40 54 45
-17.2942 -131.044 79.0115 40 54 45
-17.294 -131.044 79.0649 40 54 45
-17.2939 -131.044 79.1183 41 54 46
-17.2938 -131.044 79.1716 41 55 46
-17.2936 -131.044 79.225 41 55 46
-17.2935 -131.044 79.2784 41 55 46
-17.2933 -131.044 79.3317 41 54 46
-17.2932 -131.044 79.3851 41 54 45
-17.2931 -131.044 79.4385 40 54 45
-17.2929 -131.044 79.4918 40 53 45
-17.2928 -131.044 79.5452 40 53 44
-14.4032 -109.204 69.1784 46 57 49
-14.4031 -109.204 69.2229 43 54 46
-14.4025 -109.204 69.4453 34 45 37
-14.4024 -109.204 69.4897 34 45 37
-14.4023 -109.204 69.5342 34 45 37
-14.4021 -109.204 69.5787 33 45 36
-13.6891 -103.797 66.1765 33 45 36
-13.6889 -103.797 66.2187 33 45 36
-13.3582 -101.29 64.6605 33 44 36
-13.3581 -101.29 64.7018 33 44 36
-13.2852 -100.803 67.7159 77 98 85
-13.2851 -100.803 67.757 75 96 83
-15.6118 -118.458 79.6722 74 94 82
-15.6117 -118.458 79.7205 73 93 81
-15.7002 -119.131 80.222 72 92 80
-15.7001 -119.131 80.2705 71 92 80
-15.6113 -118.458 79.8652 71 92 79
-15.6112 -118.458 79.9134 71 92 79
-14.7762 -112.123 75.6857 71 92 79
-14.7761 -112.123 75.7313 71 92 79
-14.3912 -109.204 73.8036 71 92 79
-14.3911 -109.204 73.8481 71 92 79
-17.1224 -129.412 42.2466 235 253 245
-17.1223 -129.412 42.2993 235 253 245
-15.7413 -119.118 46.2605 101 118 110
-15.7412 -119.118 46.3091 100 117 110
-15.7411 -119.118 46.3576 99 116 109
-15.7409 -119.118 46.4061 98 115 108
-15.7408 -119.118 46.4546 97 114 107
-15.7407 -119.118 46.5031 96 112 106
-15.7406 -119.118 46.5516 94 111 104
-15.7404 -119.118 46.6002 93 109 103
-15.7403 -119.118 46.6487 92 108 102
-15.7402 -119.118 46.6972 91 107 102
-17.2065 -130.216 51.1009 90 107 102
-17.2064 -130.216 51.1539 90 107 102
-17.3036 -131.03 55.4762 129 148 139
-17.3034 -131.03 55.5296 128 148 139
-17.3033 -131.03 55.583 128 148 138
-17.3032 -131.03 55.6363 128 148 138
-17.303 -131.03 55.6897 128 148 138
-17.3029 -131.03 55.7431 128 148 138
-17.3027 -131.03 55.7964 128 148 138
-17.3026 -131.03 55.8498 128 148 138
-17.3005 -131.03 56.6503 133 153 142
-17.3004 -131.03 56.7037 133 153 143
-17.3 -131.03 56.8638 135 155 145
-17.2998 -131.03 56.9172 135 155 145
-17.2994 -131.03 57.0773 137 156 146
-17.2993 -131.03 57.1306 136 156 146
-17.2978 -131.03 57.7177 141 161 152
-17.2976 -131.03 57.771 141 161 152
-17.2972 -131.03 57.9311 140 161 152
-17.2971 -131.03 57.9845 141 161 152
-17.2969 -131.03 58.0379 141 161 152
-17.2968 -131.03 58.0912 140 160 151
-17.2967 -131.03 58.1446 140 160 151
-17.2965 -131.03 58.198 140 160 151
-17.2964 -131.03 58.2513 140 160 151
-17.2963 -131.03 58.3047 140 160 151
-17.2961 -131.03 58.3581 140 160 151
-17.296 -131.03 58.4114 140 160 151
-17.2958 -131.03 58.4648 140 160 151
-17.2957 -131.03 58.5182 140 160 151
-16.7331 -127.059 71.5973 130 150 135
-16.733 -127.059 71.6491 130 150 135
-17.2453 -131.03 77.9974 51 63 54
-17.2451 -131.03 78.0508 48 60 51
-17.245 -131.03 78.1041 45 57 49
-17.2449 -131.03 78.1575 43 55 47
-17.2447 -131.03 78.2109 42 54 46
-17.2446 -131.03 78.2642 41 54 46
-17.2444 -131.03 78.3176 41 54 45
-17.2443 -131.03 78.371 40 54 45
-17.2442 -131.03 78.4244 40 54 45
-17.244 -131.03 78.4777 40 54 45
-17.2439 -131.03 78.5311 40 54 45
-17.2437 -131.03 78.5845 40 54 45
-17.2436 -131.03 78.6378 40 54 45
-17.2435 -131.03 78.6912 40 54 45
-17.2433 -131.03 78.7446 40 54 45
-17.2432 -131.03 78.7979 40 54 45
-17.2431 -131.03 78.8513 40 54 45
-17.2429 -131.03 78.9047 40 54 45
-17.2428 -131.03 78.958 40 54 45
-17.2426 -131.03 79.0114 40 54 45
-17.2425 -131.03 79.0648 40 54 45
-17.2424 -131.03 79.1181 40 54 45
-17.2422 -131.03 79.1715 40 54 45
-17.2421 -131.03 79.2249 40 54 45
-17.2419 -131.03 79.2782 40 54 45
-17.2418 -131.03 79.3316 40 54 45
-17.2417 -131.03 79.385 40 54 45
-17.2415 -131.03 79.4383 40 53 45
-14.3602 -109.191 69.1783 46 57 49
-14.3601 -109.191 69.2228 43 54 46
-14.3595 -109.191 69.4452 34 45 37
-14.3594 -109.191 69.4896 34 45 37
-14.3593 -109.191 69.5341 34 45 37
-14.3592 -109.191 69.5786 33 45 36
-13.9946 -106.42 67.856 33 45 36
-13.9945 -106.42 67.8993 33 45 36
-13.2456 -100.792 67.7158 76 97 85
-13.2455 -100.792 67.7569 75 96 83
-15.6536 -119.118 80.1248 73 94 81
-15.6535 -119.118 80.1733 72 93 80
-15.6534 -119.118 80.2218 71 92 80
-15.6533 -119.118 80.2703 71 92 79
-15.6531 -119.118 80.3189 71 91 79
-15.653 -119.118 80.3674 71 91 79
-15.2205 -115.827 78.1945 71 91 79
-15.2204 -115.827 78.2416 71 91 79
-14.3483 -109.191 73.8035 71 91 79
-14.3481 -109.191 73.848 71 91 79
-15.6945 -119.104 46.2604 101 118 110
-15.6944 -119.104 46.3089 100 117 110
-15.6942 -119.104 46.3575 99 116 109
-15.6941 -119.104 46.406 98 115 108
-15.694 -119.104 46.4545 97 114 107
-15.6938 -119.104 46.503 96 112 106
-15.6937 -119.104 46.5515 94 111 104
-15.6936 -119.104 46.6 93 109 103
-15.6935 -119.104 46.6486 92 108 103
-15.6933 -119.104 46.6971 91 107 102
-15.9654 -121.17 47.5562 90 107 102
-15.9652 -121.17 47.6056 90 107 102
-17.252 -131.015 55.4761 128 148 139
-17.2519 -131.015 55.5295 128 148 138
-17.2518 -131.015 55.5828 127 147 138
-17.2516 -131.015 55.6362 127 147 138
-17.2515 -131.015 55.6896 127 147 138
-17.2514 -131.015 55.7429 127 148 138
-17.2512 -131.015 55.7963 128 148 138
-17.2511 -131.015 55.8497 128 148 138
-17.249 -131.015 56.6502 133 153 143
-17.2489 -131.015 56.7035 134 154 143
-17.2484 -131.015 56.8637 136 156 145
-17.2483 -131.015 56.917 136 156 146
-17.2479 -131.015 57.0771 137 157 146
-17.2478 -131.015 57.1305 137 157 146
-17.2462 -131.015 57.7175 141 161 152
-17.2461 -131.015 57.7709 141 161 152
-17.2457 -131.015 57.931 141 161 152
-17.2455 -131.015 57.9844 141 161 152
-17.2454 -131.015 58.0377 141 161 152
-17.2453 -131.015 58.0911 140 160 151
-17.2451 -131.015 58.1445 140 160 151
-17.245 -131.015 58.1978 140 160 151
-17.2449 -131.015 58.2512 140 160 151
-17.2447 -131.015 58.3046 140 160 151
-17.2446 -131.015 58.3579 140 160 151
-17.2444 -131.015 58.4113 140 160 151
-17.2443 -131.015 58.4647 140 160 151
-17.2442 -131.015 58.5181 140 160 151
-17.1937 -131.015 77.9973 51 63 53
-17.1936 -131.015 78.0506 48 60 51
-17.1935 -131.015 78.104 45 57 48
-17.1933 -131.015 78.1574 43 55 47
-17.1932 -131.015 78.2107 42 54 46
-17.193 -131.015 78.2641 41 54 45
-17.1929 -131.015 78.3175 40 54 45
-17.1928 -131.015 78.3709 40 54 45
-17.1926 -131.015 78.4242 40 53 45
-17.1925 -131.015 78.4776 40 54 45
-17.1924 -131.015 78.531 40 54 45
-17.1922 -131.015 78.5843 40 54 45
-17.1921 -131.015 78.6377 40 54 45
-17.1919 -131.015 78.6911 40 53 45
-17.1918 -131.015 78.7444 40 53 45
-17.1917 -131.015 78.7978 40 53 44
-17.1915 -131.015 78.8512 40 53 44
-17.1914 -131.015 78.9045 40 53 44
-17.1912 -131.015 78.9579 40 53 44
-17.1911 -131.015 79.0113 40 53 44
-17.191 -131.015 79.0646 40 53 44
-17.1908 -131.015 79.118 40 54 45
-17.1907 -131.015 79.1714 40 54 45
-17.1906 -131.015 79.2247 40 54 45
-17.1904 -131.015 79.2781 40 54 45
-17.1903 -131.015 79.3315 40 53 44
-17.1901 -131.015 79.3848 40 53 44
-17.19 -131.015 79.4382 40 53 44
-14.3173 -109.179 69.1782 46 57 49
-14.3172 -109.179 69.2227 43 54 46
-15.2715 -116.458 73.885 40 51 43
-15.2714 -116.458 73.9324 38 48 41
-15.2713 -116.458 73.9798 36 47 39
-15.2712 -116.458 74.0273 35 46 38
-14.3166 -109.179 69.445 34 46 37
-14.3165 -109.179 69.4895 34 45 37
-14.3164 -109.179 69.534 34 45 37
-14.3163 -109.179 69.5785 34 45 37
-14.242 -108.613 69.2622 33 45 36
-14.2418 -108.613 69.3064 33 45 36
-13.206 -100.781 67.7157 76 97 84
-13.2059 -100.781 67.7568 75 95 83
-15.6068 -119.104 80.1247 73 94 81
-15.6067 -119.104 80.1732 72 92 80
-15.6066 -119.104 80.2217 71 91 79
-15.6064 -119.104 80.2702 71 91 79
-15.6063 -119.104 80.3187 71 91 79
-15.6062 -119.104 80.3673 70 91 78
-15.5179 -118.432 79.9615 70 91 78
-15.5178 -118.432 80.0097 70 91 78
-14.3053 -109.179 73.8034 70 91 78
-14.3052 -109.179 73.8479 70 91 78
-15.2588 -116.458 78.8185 70 91 78
-15.2586 -116.458 78.8659 70 91 78
-16.7195 -127.03 38.2697 235 253 246
-16.7193 -127.03 38.3215 235 253 246
-16.7192 -127.03 38.3732 235 253 246
-16.7191 -127.03 38.425 235 253 246
-17.1329 -130.187 39.963 235 253 245
-17.1328 -130.187 40.0161 235 253 245
-17.1327 -130.187 40.0691 235 253 245
-17.1325 -130.187 40.1221 235 253 245
-15.6476 -119.091 46.2603 101 118 111
-15.6475 -119.091 46.3088 100 117 110
-15.6474 -119.091 46.3573 99 116 109
-15.6473 -119.091 46.4059 98 115 108
-15.6471 -119.091 46.4544 97 114 107
-15.647 -119.091 46.5029 96 112 106
-15.6469 -119.091 46.5514 94 111 105
-15.6468 -119.091 46.5999 93 109 103
-15.6466 -119.091 46.6484 92 108 103
-15.6465 -119.091 46.6969 91 107 102
-15.6464 -119.091 46.7455 90 107 102
-15.6462 -119.091 46.794 90 107 102
-17.2005 -131 55.476 128 148 139
-17.2004 -131 55.5293 127 147 138
-17.2002 -131 55.5827 127 147 138
-17.2001 -131 55.6361 127 147 138
-17.2 -131 55.6894 127 147 138
-17.1998 -131 55.7428 127 148 138
-17.1975 -131 56.65 134 154 143
-17.1973 -131 56.7034 134 154 144
-17.1969 -131 56.8635 136 156 146
-17.1968 -131 56.9169 137 157 146
-17.1964 -131 57.077 137 157 147
-17.1962 -131 57.1304 137 157 147
-17.1947 -131 57.7174 141 161 152
-17.1946 -131 57.7708 141 161 152
-17.1942 -131 57.9309 141 161 152
-17.194 -131 57.9842 141 161 152
-17.1939 -131 58.0376 141 161 152
-17.1937 -131 58.091 141 160 151
-17.1936 -131 58.1443 140 160 151
-17.1935 -131 58.1977 140 160 151
-17.1933 -131 58.2511 140 160 151
-17.1932 -131 58.3044 140 160 151
-17.193 -131 58.3578 140 160 151
-17.1929 -131 58.4112 140 160 151
-17.1928 -131 58.4646 140 160 151
-17.1926 -131 58.5179 140 160 151
-17.1925 -131 58.5713 140 160 150
-17.1924 -131 58.6247 139 158 149
-14.5999 -111.49 62.202 127 146 132
-14.5998 -111.49 62.2474 128 147 133
-13.8623 -105.859 59.1467 129 147 134
-13.8622 -105.859 59.1898 129 148 134
-14.069 -107.487 62.5964 128 147 135
-14.0689 -107.487 62.6402 128 147 135
-14.0688 -107.487 62.684 127 147 135
-14.0687 -107.487 62.7278 127 147 135
-17.1422 -131 77.9971 51 63 53
-17.1421 -131 78.0505 48 60 51
-17.1419 -131 78.1039 45 57 48
-17.1418 -131 78.1572 43 55 47
-17.1416 -131 78.2106 42 54 46
-17.1415 -131 78.264 41 54 45
-17.1414 -131 78.3174 40 54 45
-17.1412 -131 78.3707 40 53 45
-17.1411 -131 78.4241 40 53 44
-17.141 -131 78.4775 40 53 44
-17.1408 -131 78.5308 40 53 44
-17.1407 -131 78.5842 40 53 44
-17.1405 -131 78.6376 40 53 44
-17.1404 -131 78.6909 40 53 44
-17.1403 -131 78.7443 40 53 44
-17.1401 -131 78.7977 40 53 44
-17.14 -131 78.851 40 53 44
-17.1399 -131 78.9044 40 53 44
-17.1397 -131 78.9578 40 53 44
-17.1396 -131 79.0111 40 53 44
-17.1394 -131 79.0645 40 53 44
-17.1393 -131 79.1179 40 53 44
-17.1392 -131 79.1712 40 53 44
-17.139 -131 79.2246 40 53 44
-17.1389 -131 79.278 40 53 44
-17.1387 -131 79.3313 40 53 44
-17.1386 -131 79.3847 40 53 44
-17.1385 -131 79.4381 40 53 44
-14.2743 -109.167 69.1781 46 57 49
-14.2742 -109.167 69.2226 43 54 46
-14.2741 -109.167 69.267 40 51 43
-14.274 -109.167 69.3115 38 49 41
-14.2739 -109.167 69.356 36 47 39
-14.2738 -109.167 69.4005 35 46 38
-14.2737 -109.167 69.4449 34 46 38
-14.2735 -109.167 69.4894 34 45 37
-14.2734 -109.167 69.5339 34 45 37
-14.2733 -109.167 69.5784 34 45 37
-14.1992 -108.601 69.2621 34 45 37
-14.1991 -108.601 69.3063 34 45 36
-13.1663 -100.769 67.7156 76 97 84
-13.1662 -100.769 67.7567 74 95 82
-15.56 -119.091 80.1246 73 93 81
-15.5598 -119.091 80.1731 72 92 80
-15.5597 -119.091 80.2216 71 91 79
-15.5596 -119.091 80.2701 71 91 78
-15.5595 -119.091 80.3186 70 91 78
-15.5593 -119.091 80.3671 70 91 78
-15.5592 -119.091 80.4157 70 90 78
-15.5591 -119.091 80.4642 70 90 78
-14.337 -109.738 74.1897 70 90 78
-14.3369 -109.738 74.2344 70 90 78
-14.2621 -109.167 73.8922 70 90 78
-14.262 -109.167 73.9367 70 90 78
-15.6008 -119.078 46.2602 101 118 111
-15.6007 -119.078 46.3087 100 117 110
-15.6005 -119.078 46.3572 100 116 109
-15.6004 -119.078 46.4057 98 115 108
-15.6003 -119.078 46.4542 97 114 107
-15.6002 -119.078 46.5028 96 112 106
-15.6 -119.078 46.5513 94 111 105
-15.5999 -119.078 46.5998 93 109 104
-15.5998 -119.078 46.6483 92 108 103
-15.5997 -119.078 46.6968 91 107 102
-15.5995 -119.078 46.7453 90 107 102
-15.5994 -119.078 46.7939 90 107 102
-17.149 -130.985 55.4758 128 148 138
-17.1488 -130.985 55.5292 127 147 138
-17.1487 -130.985 55.5826 127 147 137
-17.1486 -130.985 55.6359 127 147 137
-17.1484 -130.985 55.6893 127 147 138
-17.1483 -130.985 55.7427 128 148 138
-17.1459 -130.985 56.6499 134 154 144
-17.1458 -130.985 56.7033 135 155 144
-17.1454 -130.985 56.8634 137 157 146
-17.1452 -130.985 56.9168 137 157 147
-17.1448 -130.985 57.0769 138 157 147
-17.1447 -130.985 57.1302 138 157 147
-17.1432 -130.985 57.7173 142 162 152
-17.143 -130.985 57.7706 141 161 152
-17.1426 -130.985 57.9307 141 161 152
-17.1425 -130.985 57.9841 141 161 152
-17.1423 -130.985 58.0375 141 161 152
-17.1422 -130.985 58.0908 141 161 151
-17.1421 -130.985 58.1442 140 160 151
-17.1419 -130.985 58.1976 140 160 151
-17.1418 -130.985 58.2509 140 160 151
-17.1417 -130.985 58.3043 141 160 151
-17.1415 -130.985 58.3577 141 160 151
-17.1414 -130.985 58.4111 140 160 151
-17.1412 -130.985 58.4644 141 161 151
-17.1411 -130.985 58.5178 141 160 151
-17.141 -130.985 58.5712 140 160 150
-17.1408 -130.985 58.6245 139 158 149
-13.4707 -103.24 61.3914 57 70 60
-13.4706 -103.24 61.4334 54 66 57
-17.0907 -130.985 77.997 51 63 53
-17.0905 -130.985 78.0504 48 60 51
-17.0904 -130.985 78.1037 45 57 48
-17.0903 -130.985 78.1571 43 55 47
-17.0901 -130.985 78.2105 42 54 46
-17.09 -130.985 78.2639 41 54 45
-17.0898 -130.985 78.3172 40 53 45
-17.0897 -130.985 78.3706 40 53 44
-17.0896 -130.985 78.424 40 53 44
-17.0894 -130.985 78.4773 40 53 44
-17.0893 -130.985 78.5307 40 53 44
-17.0892 -130.985 78.5841 40 53 44
-17.089 -130.985 78.6374 40 53 44
-17.0889 -130.985 78.6908 40 53 44
-17.0887 -130.985 78.7442 40 53 44
-17.0886 -130.985 78.7975 40 53 44
-17.0885 -130.985 78.8509 40 53 44
-17.0883 -130.985 78.9043 39 53 44
-17.0882 -130.985 78.9576 39 53 44
-17.088 -130.985 79.011 39 53 44
-17.0879 -130.985 79.0644 39 53 44
-17.0878 -130.985 79.1177 39 53 44
-17.0876 -130.985 79.1711 40 53 44
-17.0875 -130.985 79.2245 40 53 44
-17.0874 -130.985 79.2778 40 53 44
-17.0872 -130.985 79.3312 40 53 44
-17.0871 -130.985 79.3846 39 52 43
-17.0869 -130.985 79.4379 39 52 43
-14.2314 -109.155 69.178 46 58 50
-14.2313 -109.155 69.2225 43 54 46
-14.2312 -109.155 69.2669 40 51 43
-14.2311 -109.155 69.3114 38 49 41
-14.2309 -109.155 69.3559 36 47 39
-14.2308 -109.155 69.4003 35 46 38
-14.2307 -109.155 69.4448 35 46 38
-14.2306 -109.155 69.4893 34 46 37
-14.2305 -109.155 69.5338 34 45 37
-14.2304 -109.155 69.5782 34 45 37
-13.8691 -106.384 67.8556 34 45 37
-13.869 -106.384 67.899 34 45 37
-13.1267 -100.758 67.7155 76 96 84
-13.1266 -100.758 67.7566 74 94 82
-15.5131 -119.078 80.1244 73 93 80
-15.513 -119.078 80.173 71 92 79
-15.5129 -119.078 80.2215 71 91 79
-15.5127 -119.078 80.27 70 90 78
-15.5126 -119.078 80.3185 70 90 78
-15.5125 -119.078 80.367 70 90 78
-15.5124 -119.078 80.4155 70 90 78
-15.5122 -119.078 80.4641 70 90 78
-14.5996 -112.073 75.7765 70 90 77
-14.5995 -112.073 75.8222 70 90 77
-14.2192 -109.155 73.8921 70 90 77
-14.2191 -109.155 73.9366 69 90 77
-16.4134 -125.481 40.5722 234 253 245
-16.4132 -125.481 40.6233 234 253 244
-15.5539 -119.064 46.2601 102 118 111
-15.5538 -119.064 46.3086 101 117 110
-15.5537 -119.064 46.3571 100 117 110
-15.5536 -119.064 46.4056 99 115 109
-15.5534 -119.064 46.4541 97 114 108
-15.5533 -119.064 46.5026 96 113 106
-15.5532 -119.064 46.5512 95 111 105
-15.5531 -119.064 46.5997 93 110 104
-15.5529 -119.064 46.6482 92 108 103
-15.5528 -119.064 46.6967 91 108 102
-15.5527 -119.064 46.7452 90 107 102
-15.5526 -119.064 46.7937 90 107 103
-17.0939 -130.971 56.8633 137 157 147
-17.0937 -130.971 56.9166 137 157 147
-17.0933 -130.971 57.0767 138 158 147
-17.0932 -130.971 57.1301 138 157 147
-17.0927 -130.971 57.2902 139 158 148
-17.0926 -130.971 57.3436 140 159 149
-17.0916 -130.971 57.7171 142 162 152
-17.0915 -130.971 57.7705 141 161 152
-17.0911 -130.971 57.9306 141 161 152
-17.091 -130.971 57.984 141 161 152
-17.0908 -130.971 58.0373 141 161 152
-17.0907 -130.971 58.0907 141 161 151
-17.0905 -130.971 58.1441 140 160 151
-17.0904 -130.971 58.1974 140 160 151
-17.0903 -130.971 58.2508 141 160 151
-17.0901 -130.971 58.3042 141 161 151
-17.09 -130.971 58.3576 141 161 151
-17.0898 -130.971 58.4109 141 161 151
-17.0897 -130.971 58.4643 141 161 151
-17.0896 -130.971 58.5177 141 160 151
-17.0894 -130.971 58.571 140 160 150
-17.0893 -130.971 58.6244 139 158 149
-17.0889 -130.971 58.7845 136 156 147
-17.0887 -130.971 58.8379 136 156 147
-17.0883 -130.971 58.998 137 156 146
-17.0882 -130.971 59.0513 137 156 146
-14.5893 -112.061 62.717 129 148 134
-14.5892 -112.061 62.7627 130 149 135
-16.3363 -125.481 70.3303 130 149 135
-16.3362 -125.481 70.3814 130 150 135
-16.5295 -127.002 73.0458 130 149 135
-16.5294 -127.002 73.0976 130 149 135
-16.5292 -127.002 73.1493 130 149 135
-16.5291 -127.002 73.2011 130 149 135
-13.8391 -106.372 63.261 57 70 60
-13.839 -106.372 63.3044 54 66 56
-17.0391 -130.971 77.9969 51 63 53
-17.039 -130.971 78.0502 48 60 50
-17.0389 -130.971 78.1036 45 57 48
-17.0387 -130.971 78.157 43 55 46
-17.0386 -130.971 78.2104 41 54 45
-17.0384 -130.971 78.2637 41 53 45
-17.0383 -130.971 78.3171 40 53 44
-17.0382 -130.971 78.3705 40 53 44
-17.038 -130.971 78.4238 40 53 44
-17.0379 -130.971 78.4772 40 53 44
-17.0378 -130.971 78.5306 40 53 44
-17.0376 -130.971 78.5839 40 53 44
-17.0375 -130.971 78.6373 40 53 44
-17.0373 -130.971 78.6907 40 53 44
-17.0372 -130.971 78.744 40 53 43
-17.0371 -130.971 78.7974 39 52 43
-17.0369 -130.971 78.8508 39 52 43
-17.0368 -130.971 78.9041 39 52 43
-17.0367 -130.971 78.9575 39 52 43
-17.0365 -130.971 79.0109 39 52 43
-17.0364 -130.971 79.0642 39 52 43
-17.0362 -130.971 79.1176 39 52 43
-17.0361 -130.971 79.171 39 52 43
-17.036 -130.971 79.2243 39 52 43
-17.0358 -130.971 79.2777 39 52 43
-17.0357 -130.971 79.3311 39 52 43
-17.0355 -130.971 79.3844 39 52 43
-17.0354 -130.971 79.4378 39 52 43
-14.1885 -109.142 69.1779 46 58 50
-14.1883 -109.142 69.2223 43 54 46
-15.1341 -116.418 73.8846 40 51 43
-15.134 -116.418 73.932 38 49 41
-15.1339 -116.418 73.9795 36 47 40
-15.1337 -116.418 74.0269 35 47 39
-14.1878 -109.142 69.4447 35 46 38
-14.1877 -109.142 69.4892 34 46 38
-14.1875 -109.142 69.5337 34 46 37
-14.1874 -109.142 69.5781 34 46 37
-13.4185 -103.228 65.85 34 46 37
-13.4184 -103.228 65.892 34 45 37
-13.9675 -107.463 69.1645 33 45 36
-13.9673 -107.463 69.2083 33 44 36
-13.087 -100.747 67.7154 75 96 83
-13.0869 -100.747 67.7564 74 94 82
-15.4663 -119.064 80.1243 72 93 80
-15.4661 -119.064 80.1728 71 91 79
-15.466 -119.064 80.2214 70 90 78
-15.4659 -119.064 80.2699 70 90 78
-15.4658 -119.064 80.3184 70 90 78
-15.4656 -119.064 80.3669 69 90 77
-15.4655 -119.064 80.4154 69 90 77
-15.4654 -119.064 80.4639 69 90 77
-15.038 -115.775 78.2883 69 90 77
-15.0379 -115.775 78.3355 69 89 77
-14.2505 -109.714 74.2789 69 89 77
-14.2504 -109.714 74.3236 69 89 77
-16.6973 -128.56 87.4575 68 88 76
-16.6972 -128.56 87.5099 68 88 76
-16.4947 -127.002 86.501 68 88 76
-16.4945 -127.002 86.5527 68 88 76
-16.4944 -127.002 86.6045 68 88 76
-16.4943 -127.002 86.6562 67 88 76
-16.4941 -127.002 86.708 67 87 75
-16.494 -127.002 86.7597 67 87 75
-15.5071 -119.051 46.2599 102 119 111
-15.507 -119.051 46.3085 101 118 111
-15.5068 -119.051 46.357 100 117 110
-15.5067 -119.051 46.4055 99 116 109
-15.5066 -119.051 46.454 98 114 108
-15.5065 -119.051 46.5025 96 113 107
-15.5063 -119.051 46.551 95 111 105
-15.5062 -119.051 46.5996 93 110 104
-15.5061 -119.051 46.6481 92 109 103
-15.506 -119.051 46.6966 91 108 102
-15.5058 -119.051 46.7451 90 107 102
-15.5057 -119.051 46.7936 90 107 103
-17.0423 -130.956 56.8631 137 157 147
-17.0422 -130.956 56.9165 138 158 148
-17.0418 -130.956 57.0766 138 158 148
-17.0416 -130.956 57.13 138 158 147
-17.0412 -130.956 57.2901 139 158 148
-17.0411 -130.956 57.3434 140 159 149
-17.0401 -130.956 57.717 142 162 152
-17.04 -130.956 57.7704 141 161 152
-17.0396 -130.956 57.9305 141 161 152
-17.0394 -130.956 57.9838 141 161 152
-17.0393 -130.956 58.0372 141 161 152
-17.0391 -130.956 58.0906 141 161 152
-17.039 -130.956 58.1439 141 160 151
-17.0389 -130.956 58.1973 141 160 151
-17.0387 -130.956 58.2507 141 160 151
-17.0386 -130.956 58.3041 141 161 151
-17.0385 -130.956 58.3574 141 161 151
-17.0383 -130.956 58.4108 141 161 151
-17.0382 -130.956 58.4642 141 161 151
-17.038 -130.956 58.5175 141 161 151
