ply
format ascii 1.0
comment author : Loiseau & Broux
comment object : 3d point Cloud
element vertex 1415
property float x
property float y
property float z
property uchar red
property uchar green
property uchar blue
end_header
2.03294 -41.4745 21.7492 14 17 14
2.03299 -41.4745 21.767 14 17 14
1.98345 -40.4629 21.2534 14 16 14
1.98349 -40.4629 21.2708 14 16 14
1.96754 -40.1366 21.1165 14 16 14
1.96758 -40.1366 21.1337 13 16 14
1.96763 -40.1366 21.1509 13 16 14
1.96767 -40.1366 21.1681 13 15 13
1.96772 -40.1366 21.1853 13 15 13
1.96776 -40.1366 21.2025 12 15 13
1.96781 -40.1366 21.2198 12 15 13
1.96785 -40.1366 21.237 12 14 13
1.9679 -40.1366 21.2542 12 14 12
1.96794 -40.1366 21.2714 11 14 12
1.90649 -38.8824 20.6233 11 14 12
1.90653 -38.8824 20.64 11 13 12
1.90657 -38.8824 20.6567 11 13 12
1.90662 -38.8824 20.6734 11 13 12
1.90666 -38.8824 20.6901 10 13 12
1.9067 -38.8824 20.7067 10 13 12
1.90675 -38.8824 20.7234 10 13 12
1.90679 -38.8824 20.7401 10 13 12
1.90683 -38.8824 20.7568 10 13 12
1.90688 -38.8824 20.7734 10 13 12
1.90692 -38.8824 20.7901 10 13 12
1.90696 -38.8824 20.8068 10 13 12
1.90701 -38.8824 20.8235 10 13 12
1.90705 -38.8824 20.8401 10 14 12
1.90709 -38.8824 20.8568 10 14 12
1.90713 -38.8824 20.8735 10 14 13
1.95295 -39.8155 21.3915 11 14 13
1.95299 -39.8155 21.4086 11 14 13
1.90726 -38.8824 20.9235 11 14 13
1.90731 -38.8824 20.9402 11 15 13
1.96888 -40.1366 21.6329 11 15 13
1.96892 -40.1366 21.6501 11 15 13
1.96897 -40.1366 21.6673 11 15 13
1.96901 -40.1366 21.6845 11 15 14
2.03469 -41.4745 22.4251 11 15 14
2.03474 -41.4745 22.4429 11 15 14
2.05188 -41.823 22.6495 12 16 14
2.05193 -41.823 22.6674 12 16 14
2.12335 -43.2777 23.4744 12 16 14
2.1234 -43.2777 23.493 12 16 14
2.18032 -44.437 24.1413 12 16 15
2.18037 -44.437 24.1604 12 16 15
2.18042 -44.437 24.1794 12 16 15
2.18047 -44.437 24.1985 12 17 15
2.12364 -43.2777 23.5858 12 17 15
2.12369 -43.2777 23.6043 12 17 15
2.10543 -42.9047 23.4192 12 17 15
2.10548 -42.9047 23.4376 13 17 15
2.10552 -42.9047 23.456 13 17 15
2.10557 -42.9047 23.4744 13 17 15
2.10562 -42.9047 23.4928 13 17 15
2.10567 -42.9047 23.5113 13 17 16
2.10571 -42.9047 23.5297 13 17 16
2.10576 -42.9047 23.5481 13 17 16
2.10581 -42.9047 23.5665 13 17 16
2.10586 -42.9047 23.5849 13 17 16
2.1059 -42.9047 23.6033 13 17 16
2.10595 -42.9047 23.6217 13 17 16
2.106 -42.9047 23.6401 12 17 16
2.10605 -42.9047 23.6585 12 17 16
2.1061 -42.9047 23.6769 12 17 16
2.10614 -42.9047 23.6953 13 17 16
2.10619 -42.9047 23.7137 13 17 16
2.10624 -42.9047 23.7321 13 17 16
2.10629 -42.9047 23.7505 13 18 17
2.10633 -42.9047 23.7689 14 18 17
2.10638 -42.9047 23.7873 14 19 17
2.10643 -42.9047 23.8057 14 19 18
2.10648 -42.9047 23.8241 15 20 18
2.10653 -42.9047 23.8425 15 20 18
2.10657 -42.9047 23.8609 16 21 19
2.10662 -42.9047 23.8793 16 21 19
2.10667 -42.9047 23.8977 17 22 20
2.10672 -42.9047 23.9161 17 23 20
2.10676 -42.9047 23.9345 18 23 20
2.10681 -42.9047 23.9529 18 24 21
2.03663 -41.4745 23.1722 19 24 21
2.03668 -41.4745 23.19 19 25 22
2.10696 -42.9047 24.0081 20 25 22
2.107 -42.9047 24.0265 20 26 22
2.03682 -41.4745 23.2434 21 26 23
2.03686 -41.4745 23.2612 21 27 23
2.03691 -41.4745 23.279 21 27 23
2.03695 -41.4745 23.2968 21 27 23
2.037 -41.4745 23.3145 22 27 23
2.03705 -41.4745 23.3323 22 27 23
2.10734 -42.9047 24.1553 21 27 23
2.10738 -42.9047 24.1737 21 27 23
2.10743 -42.9047 24.1921 21 26 23
2.10748 -42.9047 24.2105 20 26 22
2.10753 -42.9047 24.2289 20 25 22
2.10758 -42.9047 24.2473 19 25 22
2.10762 -42.9047 24.2657 19 24 21
2.10767 -42.9047 24.2841 18 23 21
2.10772 -42.9047 24.3025 18 23 20
2.10777 -42.9047 24.3209 17 22 20
2.10781 -42.9047 24.3393 17 22 20
2.10786 -42.9047 24.3577 16 21 19
2.18319 -44.437 25.2467 16 20 19
2.18324 -44.437 25.2657 15 20 19
2.18329 -44.437 25.2848 15 20 18
2.18334 -44.437 25.3039 14 19 18
2.18339 -44.437 25.3229 14 19 18
2.18344 -44.437 25.342 14 18 18
2.18349 -44.437 25.361 13 18 18
2.18354 -44.437 25.3801 13 18 17
2.18359 -44.437 25.3992 13 17 17
2.18364 -44.437 25.4182 13 17 17
2.18369 -44.437 25.4373 12 17 17
2.18374 -44.437 25.4563 12 17 17
2.18379 -44.437 25.4754 12 17 17
2.18384 -44.437 25.4944 12 17 17
2.18388 -44.437 25.5135 13 18 18
2.18393 -44.437 25.5326 13 19 18
2.27318 -46.0773 22.3474 28 35 28
2.27323 -46.0773 22.3672 28 35 28
2.27328 -46.0773 22.3869 28 35 28
2.27333 -46.0773 22.4067 28 35 28
2.27338 -46.0773 22.4265 29 36 28
2.27343 -46.0773 22.4462 29 37 29
2.21204 -44.832 21.8588 30 37 29
2.21209 -44.832 21.878 31 38 30
2.19239 -44.4317 21.7018 32 39 30
2.19244 -44.4317 21.7208 33 40 31
2.19249 -44.4317 21.7399 34 42 32
2.19254 -44.4317 21.7589 36 43 34
2.11698 -42.8996 21.027 37 45 35
2.11703 -42.8996 21.0454 38 46 36
2.11708 -42.8996 21.0638 40 48 38
2.11712 -42.8996 21.0822 41 49 39
2.11717 -42.8996 21.1006 42 50 40
2.11722 -42.8996 21.119 43 51 41
2.11727 -42.8996 21.1374 43 52 42
2.11731 -42.8996 21.1558 44 52 42
2.11736 -42.8996 21.1742 44 52 43
2.11741 -42.8996 21.1926 44 52 43
2.11746 -42.8996 21.211 44 52 43
2.11751 -42.8996 21.2294 43 52 43
2.11755 -42.8996 21.2478 42 51 43
2.1176 -42.8996 21.2663 42 50 43
2.11765 -42.8996 21.2847 41 49 42
2.1177 -42.8996 21.3031 39 47 41
2.11774 -42.8996 21.3215 38 46 40
2.11779 -42.8996 21.3399 37 44 39
2.11784 -42.8996 21.3583 35 42 38
2.11789 -42.8996 21.3767 34 41 37
2.11794 -42.8996 21.3951 32 39 35
2.11798 -42.8996 21.4135 30 37 34
2.11803 -42.8996 21.4319 29 36 33
2.11808 -42.8996 21.4503 27 34 31
2.11813 -42.8996 21.4687 26 33 30
2.11817 -42.8996 21.4871 25 31 29
2.11822 -42.8996 21.5055 23 30 27
2.11827 -42.8996 21.5239 22 29 27
2.11832 -42.8996 21.5423 22 29 26
2.11837 -42.8996 21.5607 21 29 25
2.11841 -42.8996 21.5791 21 28 25
2.11846 -42.8996 21.5975 21 28 25
2.11851 -42.8996 21.6159 21 29 24
2.11856 -42.8996 21.6343 21 29 24
2.1186 -42.8996 21.6527 21 29 24
2.11865 -42.8996 21.6711 21 29 24
2.1187 -42.8996 21.6895 21 29 24
2.11875 -42.8996 21.7079 21 29 23
2.11879 -42.8996 21.7263 21 29 23
2.11884 -42.8996 21.7447 21 29 23
2.11889 -42.8996 21.7631 21 29 22
2.11894 -42.8996 21.7815 21 28 22
2.11899 -42.8996 21.7999 20 27 21
2.11903 -42.8996 21.8183 20 27 21
2.11908 -42.8996 21.8367 19 26 20
2.11913 -42.8996 21.8551 18 25 20
2.11918 -42.8996 21.8735 18 24 19
2.11922 -42.8996 21.8919 17 23 18
2.11927 -42.8996 21.9103 16 22 17
2.11932 -42.8996 21.9287 16 21 17
2.11937 -42.8996 21.9471 15 20 16
2.11942 -42.8996 21.9655 14 19 15
2.11946 -42.8996 21.9839 14 18 15
2.11951 -42.8996 22.0023 13 17 14
2.11956 -42.8996 22.0207 12 16 13
2.11961 -42.8996 22.0391 12 15 13
2.11965 -42.8996 22.0575 11 15 13
2.1197 -42.8996 22.0759 11 14 12
2.11975 -42.8996 22.0943 11 14 12
2.1198 -42.8996 22.1127 11 13 12
2.11985 -42.8996 22.1311 10 13 12
2.11989 -42.8996 22.1495 11 13 12
2.11994 -42.8996 22.1679 11 13 12
2.11999 -42.8996 22.1863 11 13 12
2.12004 -42.8996 22.2047 11 13 12
2.12008 -42.8996 22.2231 11 14 12
2.12013 -42.8996 22.2415 11 14 12
2.12018 -42.8996 22.2599 12 14 12
2.12023 -42.8996 22.2783 12 14 13
2.12027 -42.8996 22.2967 12 15 13
2.12032 -42.8996 22.3151 12 15 13
2.12037 -42.8996 22.3335 13 15 13
2.12042 -42.8996 22.3519 13 16 13
2.12047 -42.8996 22.3703 13 16 13
2.10239 -42.5329 22.1974 13 16 14
2.10244 -42.5329 22.2156 14 16 14
2.04992 -41.4696 21.678 14 16 14
2.04997 -41.4696 21.6958 14 16 14
2.05001 -41.4696 21.7136 14 17 14
2.05006 -41.4696 21.7314 14 17 14
2.05011 -41.4696 21.7492 14 17 14
2.05015 -41.4696 21.767 14 16 14
2.03326 -41.1269 21.6047 14 16 14
2.0333 -41.1269 21.6223 14 16 14
1.98415 -40.1319 21.1164 13 16 14
1.9842 -40.1319 21.1336 13 16 14
1.98424 -40.1319 21.1509 13 16 13
1.98429 -40.1319 21.1681 13 15 13
1.98433 -40.1319 21.1853 13 15 13
1.98438 -40.1319 21.2025 12 15 13
1.98442 -40.1319 21.2197 12 15 13
1.98447 -40.1319 21.2369 12 14 13
1.98451 -40.1319 21.2541 12 14 12
1.98455 -40.1319 21.2714 11 14 12
1.92258 -38.8777 20.6233 11 14 12
1.92262 -38.8777 20.64 11 13 12
1.92267 -38.8777 20.6567 11 13 12
1.92271 -38.8777 20.6733 11 13 12
1.92275 -38.8777 20.69 10 13 12
1.9228 -38.8777 20.7067 10 13 12
1.92284 -38.8777 20.7234 10 13 12
1.92288 -38.8777 20.74 10 13 12
1.92293 -38.8777 20.7567 10 13 12
1.92297 -38.8777 20.7734 10 13 12
1.92301 -38.8777 20.7901 10 13 12
1.92306 -38.8777 20.8067 10 13 12
1.9231 -38.8777 20.8234 10 14 12
1.92314 -38.8777 20.8401 10 14 12
1.92319 -38.8777 20.8568 10 14 12
1.92323 -38.8777 20.8734 11 14 13
1.93842 -39.1839 21.0546 11 14 13
1.93846 -39.1839 21.0714 11 14 13
1.92336 -38.8777 20.9235 11 14 13
1.9234 -38.8777 20.9402 11 15 13
1.98549 -40.1319 21.6329 11 15 13
1.98554 -40.1319 21.6501 11 15 13
1.98558 -40.1319 21.6673 11 15 13
1.98563 -40.1319 21.6845 11 15 14
2.05186 -41.4696 22.4251 11 15 14
2.05191 -41.4696 22.4429 11 15 14
2.10457 -42.5329 23.0366 11 16 14
2.10461 -42.5329 23.0548 12 16 14
2.17916 -44.0385 23.8898 12 16 14
2.17921 -44.0385 23.9087 12 16 14
2.19872 -44.4317 24.1412 12 16 14
2.19877 -44.4317 24.1603 12 16 14
2.19882 -44.4317 24.1794 12 16 15
2.19887 -44.4317 24.1984 12 16 15
2.17946 -44.0385 24.0032 12 16 15
2.17951 -44.0385 24.0221 12 17 15
2.12319 -42.8996 23.4192 12 17 15
2.12323 -42.8996 23.4376 12 17 15
2.12328 -42.8996 23.456 12 17 15
2.12333 -42.8996 23.4744 12 17 15
2.12338 -42.8996 23.4928 12 17 15
2.12343 -42.8996 23.5112 12 17 15
2.12347 -42.8996 23.5296 12 17 15
2.12352 -42.8996 23.548 12 17 15
2.12357 -42.8996 23.5664 12 17 15
2.12362 -42.8996 23.5848 12 17 16
2.12366 -42.8996 23.6032 12 17 16
2.12371 -42.8996 23.6216 12 17 16
2.12376 -42.8996 23.64 12 17 16
2.12381 -42.8996 23.6584 12 17 16
2.12386 -42.8996 23.6768 12 17 16
2.1239 -42.8996 23.6952 12 17 16
2.12395 -42.8996 23.7136 13 17 16
2.124 -42.8996 23.732 13 17 16
2.12405 -42.8996 23.7504 13 18 16
2.12409 -42.8996 23.7688 14 18 17
2.12414 -42.8996 23.7872 14 19 17
2.12419 -42.8996 23.8056 14 19 18
2.12424 -42.8996 23.824 15 20 18
2.12429 -42.8996 23.8424 15 20 18
2.12433 -42.8996 23.8608 16 21 19
2.12438 -42.8996 23.8792 16 21 19
2.12443 -42.8996 23.8976 17 22 19
2.12448 -42.8996 23.916 17 23 20
2.12452 -42.8996 23.9344 18 23 20
2.12457 -42.8996 23.9528 18 24 21
2.0538 -41.4696 23.1722 19 24 21
2.05384 -41.4696 23.19 19 25 21
2.12471 -42.8996 24.008 20 25 22
2.12476 -42.8996 24.0264 20 26 22
2.05398 -41.4696 23.2433 20 26 22
2.05403 -41.4696 23.2611 21 27 23
2.05408 -41.4696 23.2789 21 27 23
2.05412 -41.4696 23.2967 21 27 23
2.05417 -41.4696 23.3145 21 27 23
2.05421 -41.4696 23.3323 21 27 23
2.1251 -42.8996 24.1552 21 27 23
2.12514 -42.8996 24.1737 21 26 23
2.12519 -42.8996 24.1921 21 26 22
2.12524 -42.8996 24.2105 20 26 22
2.12529 -42.8996 24.2289 20 25 22
2.12534 -42.8996 24.2473 19 25 21
2.12538 -42.8996 24.2657 19 24 21
2.12543 -42.8996 24.2841 18 23 21
2.12548 -42.8996 24.3025 18 23 20
2.12553 -42.8996 24.3209 17 22 20
2.12557 -42.8996 24.3393 17 22 19
2.12562 -42.8996 24.3577 16 21 19
2.20159 -44.4317 25.2466 16 20 19
2.20164 -44.4317 25.2657 15 20 19
2.20169 -44.4317 25.2848 15 19 18
2.20173 -44.4317 25.3038 14 19 18
2.20178 -44.4317 25.3229 14 19 18
2.20183 -44.4317 25.3419 14 18 18
2.20188 -44.4317 25.361 13 18 18
2.20193 -44.4317 25.38 13 18 17
2.20198 -44.4317 25.3991 13 17 17
2.20203 -44.4317 25.4182 13 17 17
2.20208 -44.4317 25.4372 12 17 17
2.20213 -44.4317 25.4563 12 17 17
2.20218 -44.4317 25.4753 12 17 17
2.20223 -44.4317 25.4944 12 17 17
2.20228 -44.4317 25.5135 13 18 18
2.20233 -44.4317 25.5325 13 19 18
2.29225 -46.0718 22.3474 28 35 28
2.29231 -46.0718 22.3671 28 35 28
2.29236 -46.0718 22.3869 28 35 28
2.29241 -46.0718 22.4067 28 35 28
2.29246 -46.0718 22.4264 28 35 28
2.29251 -46.0718 22.4462 29 36 28
2.21068 -44.4264 21.6636 30 37 29
2.21073 -44.4264 21.6827 31 38 29
2.21078 -44.4264 21.7017 31 39 30
2.21083 -44.4264 21.7208 33 40 31
2.21088 -44.4264 21.7398 34 41 32
2.21093 -44.4264 21.7589 35 43 33
2.13474 -42.8945 21.027 37 44 34
2.13479 -42.8945 21.0454 38 46 36
2.13484 -42.8945 21.0638 39 47 37
2.13488 -42.8945 21.0822 41 48 38
2.13493 -42.8945 21.1006 42 49 39
2.13498 -42.8945 21.119 42 50 40
2.13503 -42.8945 21.1374 43 51 41
2.13507 -42.8945 21.1558 43 52 42
2.13512 -42.8945 21.1742 44 52 42
2.13517 -42.8945 21.1926 44 52 43
2.13522 -42.8945 21.211 44 52 43
2.13527 -42.8945 21.2294 43 51 43
2.13531 -42.8945 21.2478 43 51 42
2.13536 -42.8945 21.2662 42 50 42
2.13541 -42.8945 21.2846 41 48 41
2.13546 -42.8945 21.303 40 47 41
2.1355 -42.8945 21.3214 38 46 40
2.13555 -42.8945 21.3398 37 44 39
2.1356 -42.8945 21.3582 35 43 38
2.13565 -42.8945 21.3766 34 41 36
2.1357 -42.8945 21.395 32 39 35
2.13574 -42.8945 21.4134 31 38 34
2.13579 -42.8945 21.4318 29 36 32
2.13584 -42.8945 21.4502 28 34 31
2.13589 -42.8945 21.4686 26 33 30
2.13593 -42.8945 21.487 25 31 28
2.13598 -42.8945 21.5054 24 30 27
2.13603 -42.8945 21.5238 23 29 26
2.13608 -42.8945 21.5422 22 29 26
2.13612 -42.8945 21.5606 21 28 25
2.13617 -42.8945 21.579 21 28 25
2.13622 -42.8945 21.5974 21 28 24
2.13627 -42.8945 21.6158 21 28 24
2.13632 -42.8945 21.6342 21 28 24
2.13636 -42.8945 21.6526 21 28 23
2.13641 -42.8945 21.671 21 28 23
2.13646 -42.8945 21.6894 21 28 23
2.13651 -42.8945 21.7078 20 28 23
2.13655 -42.8945 21.7262 20 28 22
2.1366 -42.8945 21.7446 20 28 22
2.13665 -42.8945 21.763 20 27 22
2.1367 -42.8945 21.7814 20 27 21
2.13675 -42.8945 21.7998 19 26 21
2.13679 -42.8945 21.8182 19 25 20
2.13684 -42.8945 21.8366 18 24 19
2.13689 -42.8945 21.855 17 23 19
2.13694 -42.8945 21.8734 17 22 18
2.13698 -42.8945 21.8918 16 21 17
2.13703 -42.8945 21.9102 15 20 17
2.13708 -42.8945 21.9287 15 19 16
2.13713 -42.8945 21.9471 14 18 15
2.13718 -42.8945 21.9655 13 17 15
2.13722 -42.8945 21.9839 13 17 14
2.13727 -42.8945 22.0023 12 16 13
2.13732 -42.8945 22.0207 12 15 13
2.13737 -42.8945 22.0391 11 14 12
2.13741 -42.8945 22.0575 11 14 12
2.13746 -42.8945 22.0759 11 13 12
2.13751 -42.8945 22.0943 10 13 12
2.13756 -42.8945 22.1127 10 13 12
2.1376 -42.8945 22.1311 10 13 12
2.13765 -42.8945 22.1495 10 13 12
2.1377 -42.8945 22.1679 11 13 12
2.13775 -42.8945 22.1863 11 13 12
2.1378 -42.8945 22.2047 11 14 12
2.13784 -42.8945 22.2231 11 14 12
2.13789 -42.8945 22.2415 12 14 12
2.13794 -42.8945 22.2599 12 14 13
2.13799 -42.8945 22.2783 12 15 13
2.13803 -42.8945 22.2967 12 15 13
2.13808 -42.8945 22.3151 13 15 13
2.13813 -42.8945 22.3335 13 15 13
2.13818 -42.8945 22.3519 13 16 13
2.13823 -42.8945 22.3703 13 16 14
2.13827 -42.8945 22.3887 13 16 14
2.13832 -42.8945 22.4071 14 16 14
2.06709 -41.4647 21.678 14 16 14
2.06714 -41.4647 21.6958 14 16 14
2.06718 -41.4647 21.7135 14 17 14
2.06723 -41.4647 21.7313 14 17 14
2.06727 -41.4647 21.7491 14 17 14
2.06732 -41.4647 21.7669 14 16 14
2.06737 -41.4647 21.7847 14 16 14
2.06741 -41.4647 21.8025 14 16 14
2.00077 -40.1271 21.1164 13 16 14
2.00081 -40.1271 21.1336 13 16 14
2.00086 -40.1271 21.1508 13 15 13
2.0009 -40.1271 21.168 13 15 13
2.00095 -40.1271 21.1852 13 15 13
2.00099 -40.1271 21.2025 12 15 13
2.00103 -40.1271 21.2197 12 15 13
2.00108 -40.1271 21.2369 12 14 13
2.00112 -40.1271 21.2541 12 14 12
2.00117 -40.1271 21.2713 11 14 12
1.93868 -38.8731 20.6233 11 14 12
1.93872 -38.8731 20.6399 11 13 12
1.93876 -38.8731 20.6566 11 13 12
1.93881 -38.8731 20.6733 11 13 12
1.93885 -38.8731 20.69 11 13 12
1.93889 -38.8731 20.7066 10 13 12
1.93894 -38.8731 20.7233 10 13 12
1.93898 -38.8731 20.74 10 13 12
1.93902 -38.8731 20.7567 10 13 12
1.93906 -38.8731 20.7734 10 13 12
1.93911 -38.8731 20.79 10 13 12
1.93915 -38.8731 20.8067 10 13 12
1.93919 -38.8731 20.8234 10 14 12
1.93924 -38.8731 20.8401 10 14 12
1.93928 -38.8731 20.8567 11 14 13
1.93932 -38.8731 20.8734 11 14 13
1.95464 -39.1792 21.0546 11 14 13
1.95468 -39.1792 21.0714 11 14 13
1.95473 -39.1792 21.0882 11 15 13
1.95477 -39.1792 21.105 11 15 13
2.00211 -40.1271 21.6328 11 15 13
2.00215 -40.1271 21.65 11 15 13
2.01847 -40.4533 21.8434 11 15 13
2.01852 -40.4533 21.8608 11 15 14
2.06903 -41.4647 22.4251 11 15 14
2.06907 -41.4647 22.4428 11 15 14
2.14047 -42.8945 23.2351 11 16 14
2.14052 -42.8945 23.2535 12 16 14
2.21701 -44.4264 24.1031 12 16 14
2.21706 -44.4264 24.1221 12 16 14
2.21711 -44.4264 24.1412 12 16 14
2.21716 -44.4264 24.1603 12 16 14
2.21721 -44.4264 24.1793 12 16 14
2.21726 -44.4264 24.1984 12 16 15
2.19769 -44.0333 24.0031 12 16 15
2.19774 -44.0333 24.022 12 16 15
2.14095 -42.8945 23.4192 12 16 15
2.14099 -42.8945 23.4376 12 16 15
2.14104 -42.8945 23.456 12 17 15
2.14109 -42.8945 23.4744 12 17 15
2.14114 -42.8945 23.4928 12 17 15
2.14119 -42.8945 23.5112 12 17 15
2.14123 -42.8945 23.5296 12 17 15
2.14128 -42.8945 23.548 12 17 15
2.14133 -42.8945 23.5664 12 17 15
2.14138 -42.8945 23.5848 12 17 15
2.14142 -42.8945 23.6032 12 17 15
2.14147 -42.8945 23.6216 12 16 15
2.14152 -42.8945 23.64 12 16 15
2.14157 -42.8945 23.6584 12 16 15
2.14162 -42.8945 23.6768 12 16 15
2.14166 -42.8945 23.6952 12 17 16
2.14171 -42.8945 23.7136 13 17 16
2.14176 -42.8945 23.732 13 17 16
2.14181 -42.8945 23.7504 13 18 16
2.14185 -42.8945 23.7688 13 18 17
2.1419 -42.8945 23.7872 14 19 17
2.14195 -42.8945 23.8056 14 19 17
2.142 -42.8945 23.824 15 20 18
2.14204 -42.8945 23.8424 15 20 18
2.14209 -42.8945 23.8608 16 21 19
2.14214 -42.8945 23.8792 16 21 19
2.14219 -42.8945 23.8976 17 22 19
2.14224 -42.8945 23.916 17 22 20
2.12397 -42.5278 23.7298 18 23 20
2.12402 -42.5278 23.7481 18 24 20
2.07097 -41.4647 23.1722 19 24 21
2.07101 -41.4647 23.1899 19 25 21
2.12416 -42.5278 23.8028 19 25 22
2.12421 -42.5278 23.821 20 26 22
2.07115 -41.4647 23.2433 20 26 22
2.0712 -41.4647 23.2611 21 26 22
2.07124 -41.4647 23.2789 21 27 23
2.07129 -41.4647 23.2967 21 27 23
2.08874 -41.8131 23.5104 21 27 23
2.08879 -41.8131 23.5283 21 27 23
2.14286 -42.8945 24.1552 21 27 23
2.1429 -42.8945 24.1736 21 26 22
2.14295 -42.8945 24.192 20 26 22
2.143 -42.8945 24.2104 20 25 22
2.14305 -42.8945 24.2288 20 25 22
2.1431 -42.8945 24.2472 19 24 21
2.14314 -42.8945 24.2656 19 24 21
2.14319 -42.8945 24.284 18 23 21
2.14324 -42.8945 24.3024 18 23 20
2.14329 -42.8945 24.3208 17 22 20
2.14333 -42.8945 24.3392 17 21 19
2.14338 -42.8945 24.3576 16 21 19
2.21998 -44.4264 25.2466 16 20 19
2.22003 -44.4264 25.2656 15 20 19
2.22008 -44.4264 25.2847 15 19 18
2.22013 -44.4264 25.3038 14 19 18
2.22018 -44.4264 25.3228 14 19 18
2.22023 -44.4264 25.3419 14 18 18
2.22028 -44.4264 25.3609 13 18 18
2.22033 -44.4264 25.38 13 18 17
2.22038 -44.4264 25.3991 13 17 17
2.22043 -44.4264 25.4181 13 17 17
2.22048 -44.4264 25.4372 12 17 17
2.22052 -44.4264 25.4562 12 17 17
2.22057 -44.4264 25.4753 12 17 17
2.22062 -44.4264 25.4944 12 17 17
2.22067 -44.4264 25.5134 13 18 18
2.22072 -44.4264 25.5325 13 19 18
2.33283 -46.4969 22.5163 30 36 29
2.33288 -46.4969 22.5362 28 35 28
2.31133 -46.0664 22.3473 28 34 28
2.31138 -46.0664 22.3671 27 34 27
2.31143 -46.0664 22.3869 27 34 27
2.31148 -46.0664 22.4066 28 34 27
2.31153 -46.0664 22.4264 28 35 27
2.31159 -46.0664 22.4461 29 35 28
2.22908 -44.4211 21.6636 29 36 28
2.22913 -44.4211 21.6826 30 37 29
2.22918 -44.4211 21.7017 31 38 29
2.22923 -44.4211 21.7207 32 39 30
2.22928 -44.4211 21.7398 33 40 31
2.22933 -44.4211 21.7588 35 42 32
2.1525 -42.8894 21.0269 36 43 33
2.15255 -42.8894 21.0453 37 45 35
2.1526 -42.8894 21.0637 39 46 36
2.15264 -42.8894 21.0821 40 48 37
2.15269 -42.8894 21.1005 41 49 38
2.15274 -42.8894 21.1189 42 50 39
2.15279 -42.8894 21.1374 43 50 40
2.15283 -42.8894 21.1558 43 51 41
2.15288 -42.8894 21.1742 43 51 41
2.15293 -42.8894 21.1926 44 51 42
2.15298 -42.8894 21.211 43 51 42
2.15303 -42.8894 21.2294 43 51 42
2.15307 -42.8894 21.2478 42 50 42
2.15312 -42.8894 21.2662 42 49 41
2.15317 -42.8894 21.2846 41 48 41
2.15322 -42.8894 21.303 39 47 40
2.15326 -42.8894 21.3214 38 45 39
2.15331 -42.8894 21.3398 37 44 38
2.15336 -42.8894 21.3582 36 42 37
2.15341 -42.8894 21.3766 34 41 36
2.15345 -42.8894 21.395 32 39 35
2.1535 -42.8894 21.4134 31 38 33
2.15355 -42.8894 21.4318 29 36 32
2.1536 -42.8894 21.4502 28 34 31
2.15365 -42.8894 21.4686 26 33 29
2.15369 -42.8894 21.487 25 31 28
2.15374 -42.8894 21.5054 24 30 27
2.15379 -42.8894 21.5238 23 29 26
2.15384 -42.8894 21.5422 22 29 25
2.15388 -42.8894 21.5606 21 28 25
2.15393 -42.8894 21.579 21 28 24
2.15398 -42.8894 21.5974 21 28 24
2.15403 -42.8894 21.6158 20 28 23
2.15408 -42.8894 21.6342 20 28 23
2.15412 -42.8894 21.6526 20 27 23
2.15417 -42.8894 21.671 20 27 22
2.15422 -42.8894 21.6894 20 27 22
2.15427 -42.8894 21.7078 20 27 22
2.15431 -42.8894 21.7262 20 27 22
2.15436 -42.8894 21.7446 19 26 21
2.15441 -42.8894 21.763 19 26 21
2.15446 -42.8894 21.7814 19 25 20
2.15451 -42.8894 21.7998 18 25 20
2.15455 -42.8894 21.8182 18 24 19
2.1546 -42.8894 21.8366 17 23 18
2.15465 -42.8894 21.855 16 22 18
2.1547 -42.8894 21.8734 16 21 17
2.15474 -42.8894 21.8918 15 20 16
2.15479 -42.8894 21.9102 14 19 16
2.15484 -42.8894 21.9286 14 18 15
2.15489 -42.8894 21.947 13 17 14
2.15493 -42.8894 21.9654 13 16 14
2.15498 -42.8894 21.9838 12 16 13
2.15503 -42.8894 22.0022 12 15 13
2.15508 -42.8894 22.0206 11 14 12
2.15513 -42.8894 22.039 11 14 12
2.15517 -42.8894 22.0574 10 13 12
2.15522 -42.8894 22.0758 10 13 12
2.15527 -42.8894 22.0942 10 13 12
2.15532 -42.8894 22.1126 10 13 12
2.15536 -42.8894 22.131 10 13 12
2.15541 -42.8894 22.1494 11 13 12
2.15546 -42.8894 22.1678 11 13 12
2.15551 -42.8894 22.1862 11 14 12
2.15556 -42.8894 22.2046 11 14 12
2.1556 -42.8894 22.223 12 14 12
2.15565 -42.8894 22.2414 12 14 13
2.1557 -42.8894 22.2598 12 15 13
2.15575 -42.8894 22.2782 12 15 13
2.15579 -42.8894 22.2966 13 15 13
2.15584 -42.8894 22.315 13 15 13
2.15589 -42.8894 22.3334 13 16 13
2.15594 -42.8894 22.3518 13 16 14
2.15599 -42.8894 22.3702 13 16 14
2.15603 -42.8894 22.3886 14 16 14
2.15608 -42.8894 22.407 14 16 14
2.08426 -41.4597 21.6779 14 17 14
2.0843 -41.4597 21.6957 14 17 14
2.08435 -41.4597 21.7135 14 17 14
2.0844 -41.4597 21.7313 14 17 14
2.08444 -41.4597 21.7491 14 17 14
2.08449 -41.4597 21.7669 14 17 14
2.08453 -41.4597 21.7847 14 16 14
2.08458 -41.4597 21.8024 14 16 14
2.01738 -40.1223 21.1163 14 16 14
2.01743 -40.1223 21.1336 13 16 14
2.01747 -40.1223 21.1508 13 16 13
2.01751 -40.1223 21.168 13 15 13
2.01756 -40.1223 21.1852 13 15 13
2.0176 -40.1223 21.2024 12 15 13
2.01765 -40.1223 21.2196 12 15 13
2.01769 -40.1223 21.2368 12 14 13
2.01774 -40.1223 21.2541 12 14 12
2.01778 -40.1223 21.2713 11 14 12
1.95477 -38.8685 20.6232 11 14 12
1.95481 -38.8685 20.6399 11 14 12
1.95486 -38.8685 20.6566 11 13 12
1.9549 -38.8685 20.6733 11 13 12
1.95494 -38.8685 20.6899 11 13 12
1.95499 -38.8685 20.7066 10 13 12
1.95503 -38.8685 20.7233 10 13 12
1.95507 -38.8685 20.74 10 13 12
1.95512 -38.8685 20.7566 10 13 12
1.95516 -38.8685 20.7733 10 13 12
1.9552 -38.8685 20.79 10 13 12
1.95525 -38.8685 20.8067 10 13 12
1.95529 -38.8685 20.8233 10 14 12
1.95533 -38.8685 20.84 10 14 12
1.95538 -38.8685 20.8567 11 14 13
1.95542 -38.8685 20.8734 11 14 13
2.00239 -39.8013 21.3914 11 14 13
2.00244 -39.8013 21.4085 11 14 13
2.00248 -39.8013 21.4256 11 15 13
2.00253 -39.8013 21.4426 11 15 13
2.01872 -40.1223 21.6328 11 15 13
2.01877 -40.1223 21.65 11 15 13
2.06886 -41.1171 22.2044 11 15 13
2.06891 -41.1171 22.222 11 15 14
2.0862 -41.4597 22.425 11 15 14
2.08624 -41.4597 22.4428 11 15 14
2.15823 -42.8894 23.2351 11 16 14
2.15828 -42.8894 23.2535 12 16 14
2.23541 -44.4211 24.103 12 16 14
2.23546 -44.4211 24.1221 12 16 14
2.23551 -44.4211 24.1412 12 16 14
2.23556 -44.4211 24.1602 12 16 14
2.23561 -44.4211 24.1793 12 16 14
2.23565 -44.4211 24.1983 12 16 14
2.17738 -43.2623 23.5856 12 16 15
2.17743 -43.2623 23.6042 12 16 15
2.15871 -42.8894 23.4191 12 16 15
2.15875 -42.8894 23.4375 12 16 15
2.1588 -42.8894 23.4559 12 16 15
2.15885 -42.8894 23.4743 12 16 15
2.1589 -42.8894 23.4927 12 16 15
2.15895 -42.8894 23.5111 12 16 15
2.15899 -42.8894 23.5295 12 16 15
2.15904 -42.8894 23.5479 12 16 15
2.15909 -42.8894 23.5663 12 16 15
2.15914 -42.8894 23.5847 12 16 15
2.15918 -42.8894 23.6031 12 16 15
2.15923 -42.8894 23.6215 12 16 15
2.15928 -42.8894 23.6399 12 16 15
2.15933 -42.8894 23.6583 12 16 15
2.15938 -42.8894 23.6767 12 16 15
2.15942 -42.8894 23.6951 12 17 15
2.15947 -42.8894 23.7135 12 17 16
2.15952 -42.8894 23.7319 13 17 16
2.15957 -42.8894 23.7503 13 17 16
2.15961 -42.8894 23.7687 13 18 17
2.15966 -42.8894 23.7871 14 18 17
2.15971 -42.8894 23.8055 14 19 17
2.15976 -42.8894 23.8239 15 19 18
2.1598 -42.8894 23.8423 15 20 18
2.15985 -42.8894 23.8607 16 20 18
2.1599 -42.8894 23.8791 16 21 19
2.15995 -42.8894 23.8975 16 22 19
2.16 -42.8894 23.9159 17 22 20
2.10559 -41.8081 23.331 17 23 20
2.10564 -41.8081 23.3489 18 23 20
2.08813 -41.4597 23.1721 18 24 21
2.08818 -41.4597 23.1899 19 24 21
2.10577 -41.8081 23.4027 19 25 21
2.10582 -41.8081 23.4206 20 25 22
2.08832 -41.4597 23.2433 20 26 22
2.08837 -41.4597 23.261 20 26 22
2.08841 -41.4597 23.2788 21 27 22
2.08846 -41.4597 23.2966 21 27 23
2.14205 -42.5228 23.9122 21 27 23
2.1421 -42.5228 23.9305 21 27 23
2.16062 -42.8894 24.1552 21 26 23
2.16066 -42.8894 24.1736 21 26 22
2.16071 -42.8894 24.192 20 26 22
2.16076 -42.8894 24.2104 20 25 22
2.16081 -42.8894 24.2288 19 25 21
2.16086 -42.8894 24.2472 19 24 21
2.1609 -42.8894 24.2656 19 24 21
2.16095 -42.8894 24.284 18 23 20
2.161 -42.8894 24.3024 18 23 20
2.16105 -42.8894 24.3208 17 22 20
2.16109 -42.8894 24.3392 17 21 19
2.16114 -42.8894 24.3576 16 21 19
2.23837 -44.4211 25.2465 16 20 19
2.23842 -44.4211 25.2656 15 20 19
2.23847 -44.4211 25.2847 15 20 18
2.23852 -44.4211 25.3037 14 19 18
2.23857 -44.4211 25.3228 14 19 18
2.23862 -44.4211 25.3418 14 18 18
2.23867 -44.4211 25.3609 13 18 18
2.23872 -44.4211 25.38 13 18 18
2.23877 -44.4211 25.399 13 18 17
2.23882 -44.4211 25.4181 13 17 17
2.23887 -44.4211 25.4371 12 17 17
2.23892 -44.4211 25.4562 12 17 17
2.23897 -44.4211 25.4752 12 17 17
2.23902 -44.4211 25.4943 12 17 17
2.23907 -44.4211 25.5134 13 18 18
2.23912 -44.4211 25.5324 13 19 19
2.3303 -46.0609 22.3077 29 35 29
2.33035 -46.0609 22.3275 28 34 28
2.3304 -46.0609 22.3473 27 34 27
2.33046 -46.0609 22.367 27 33 27
2.33051 -46.0609 22.3868 27 33 27
2.33056 -46.0609 22.4066 27 34 27
2.33061 -46.0609 22.4263 28 34 27
2.33066 -46.0609 22.4461 28 35 27
2.24747 -44.4158 21.6635 29 35 28
2.24752 -44.4158 21.6826 30 36 28
2.24757 -44.4158 21.7016 30 37 29
2.24762 -44.4158 21.7207 31 38 29
2.24767 -44.4158 21.7397 33 39 30
2.24772 -44.4158 21.7588 34 41 31
2.17026 -42.8843 21.0269 35 42 33
2.17031 -42.8843 21.0453 37 44 34
2.17036 -42.8843 21.0637 38 45 35
2.1704 -42.8843 21.0821 39 47 36
2.17045 -42.8843 21.1005 40 48 37
2.1705 -42.8843 21.1189 41 49 38
2.17055 -42.8843 21.1373 42 49 39
2.17059 -42.8843 21.1557 43 50 40
2.17064 -42.8843 21.1741 43 50 41
2.17069 -42.8843 21.1925 43 51 41
2.17074 -42.8843 21.2109 43 50 41
2.17079 -42.8843 21.2293 43 50 41
2.17083 -42.8843 21.2477 42 49 41
2.17088 -42.8843 21.2661 41 48 40
2.17093 -42.8843 21.2845 40 47 40
2.17098 -42.8843 21.3029 39 46 39
2.17102 -42.8843 21.3213 38 45 38
2.17107 -42.8843 21.3397 37 43 37
2.17112 -42.8843 21.3581 35 42 36
2.17117 -42.8843 21.3765 34 40 35
2.17121 -42.8843 21.3949 32 39 34
2.17126 -42.8843 21.4133 31 37 33
2.17131 -42.8843 21.4317 29 36 32
2.17136 -42.8843 21.4501 28 34 30
2.17141 -42.8843 21.4685 26 33 29
2.17145 -42.8843 21.4869 25 31 28
2.1715 -42.8843 21.5053 24 30 27
2.17155 -42.8843 21.5237 23 29 26
2.1716 -42.8843 21.5421 22 28 25
2.17164 -42.8843 21.5605 21 28 24
2.17169 -42.8843 21.5789 21 28 24
2.17174 -42.8843 21.5973 20 27 23
2.17179 -42.8843 21.6157 20 27 23
2.17184 -42.8843 21.6341 20 27 22
2.17188 -42.8843 21.6525 20 27 22
2.17193 -42.8843 21.6709 19 26 22
2.17198 -42.8843 21.6893 19 26 21
2.17203 -42.8843 21.7077 19 26 21
2.17207 -42.8843 21.7261 19 26 21
2.17212 -42.8843 21.7445 19 25 20
2.17217 -42.8843 21.7629 18 25 20
2.17222 -42.8843 21.7813 18 24 19
2.17227 -42.8843 21.7998 17 24 19
2.17231 -42.8843 21.8182 17 23 18
2.17236 -42.8843 21.8366 16 22 18
2.17241 -42.8843 21.855 16 21 17
2.17246 -42.8843 21.8734 15 20 16
2.1725 -42.8843 21.8918 14 19 16
2.17255 -42.8843 21.9102 14 18 15
2.1726 -42.8843 21.9286 13 17 14
2.17265 -42.8843 21.947 12 16 14
2.17269 -42.8843 21.9654 12 16 13
2.17274 -42.8843 21.9838 11 15 13
2.17279 -42.8843 22.0022 11 14 12
2.17284 -42.8843 22.0206 11 14 12
2.17289 -42.8843 22.039 10 13 12
2.17293 -42.8843 22.0574 10 13 12
2.17298 -42.8843 22.0758 10 13 12
2.17303 -42.8843 22.0942 10 13 12
2.17308 -42.8843 22.1126 10 13 12
2.17312 -42.8843 22.131 11 13 12
2.17317 -42.8843 22.1494 11 13 12
2.17322 -42.8843 22.1678 11 14 12
2.17327 -42.8843 22.1862 11 14 12
2.17332 -42.8843 22.2046 12 14 12
2.17336 -42.8843 22.223 12 14 13
2.17341 -42.8843 22.2414 12 15 13
2.17346 -42.8843 22.2598 12 15 13
2.17351 -42.8843 22.2782 13 15 13
2.17355 -42.8843 22.2966 13 15 13
2.1736 -42.8843 22.315 13 16 13
2.17365 -42.8843 22.3334 13 16 14
2.1737 -42.8843 22.3518 14 16 14
2.17375 -42.8843 22.3702 14 16 14
2.15521 -42.5177 22.1972 14 16 14
2.15526 -42.5177 22.2155 14 17 14
2.10143 -41.4548 21.6779 14 17 14
2.10147 -41.4548 21.6957 14 17 14
2.10152 -41.4548 21.7135 14 17 14
2.10156 -41.4548 21.7312 14 17 14
2.10161 -41.4548 21.749 14 17 14
2.10166 -41.4548 21.7668 14 17 14
2.1017 -41.4548 21.7846 14 17 14
2.10175 -41.4548 21.8024 14 16 14
2.05053 -40.4437 21.288 14 16 14
2.05058 -40.4437 21.3053 13 16 14
2.03408 -40.1175 21.1507 13 16 13
2.03413 -40.1175 21.1679 13 15 13
2.03417 -40.1175 21.1852 13 15 13
2.03422 -40.1175 21.2024 12 15 13
2.03426 -40.1175 21.2196 12 15 13
2.03431 -40.1175 21.2368 12 14 13
2.01808 -39.7966 21.084 12 14 12
2.01812 -39.7966 21.1011 11 14 12
1.97087 -38.8639 20.6232 11 14 12
1.97091 -38.8639 20.6399 11 14 12
1.97095 -38.8639 20.6565 11 13 12
1.97099 -38.8639 20.6732 11 13 12
1.97104 -38.8639 20.6899 11 13 12
1.97108 -38.8639 20.7066 10 13 12
1.97112 -38.8639 20.7232 10 13 12
1.97117 -38.8639 20.7399 10 13 12
1.97121 -38.8639 20.7566 10 13 12
1.97125 -38.8639 20.7733 10 13 12
1.9713 -38.8639 20.7899 10 13 12
1.97134 -38.8639 20.8066 10 14 12
1.97138 -38.8639 20.8233 10 14 12
1.97143 -38.8639 20.84 11 14 12
1.97147 -38.8639 20.8566 11 14 13
1.97151 -38.8639 20.8733 11 14 13
2.03516 -40.1175 21.5639 11 14 13
2.0352 -40.1175 21.5811 11 15 13
2.03525 -40.1175 21.5983 11 15 13
2.03529 -40.1175 21.6155 11 15 13
2.03533 -40.1175 21.6327 11 15 13
2.03538 -40.1175 21.6499 11 15 13
2.10327 -41.4548 22.3894 11 15 13
2.10332 -41.4548 22.4072 11 15 14
2.12104 -41.8032 22.6134 11 15 14
2.12109 -41.8032 22.6314 11 15 14
2.19491 -43.2572 23.4371 11 16 14
2.19496 -43.2572 23.4557 12 16 14
2.2538 -44.4158 24.103 12 16 14
2.25385 -44.4158 24.122 12 16 14
2.2539 -44.4158 24.1411 12 16 14
2.25395 -44.4158 24.1602 12 16 14
2.254 -44.4158 24.1792 12 16 14
2.25405 -44.4158 24.1983 12 16 14
2.1953 -43.2572 23.5856 12 16 14
2.19534 -43.2572 23.6041 12 16 14
2.19539 -43.2572 23.6227 12 16 15
2.19544 -43.2572 23.6413 12 16 15
2.19549 -43.2572 23.6598 12 16 15
2.19554 -43.2572 23.6784 12 16 15
2.19558 -43.2572 23.697 12 16 15
2.19563 -43.2572 23.7155 12 16 15
2.17675 -42.8843 23.5295 12 16 15
2.1768 -42.8843 23.5479 12 16 15
2.17685 -42.8843 23.5663 12 16 15
2.1769 -42.8843 23.5847 12 16 15
2.17694 -42.8843 23.6031 12 16 15
2.17699 -42.8843 23.6215 12 16 15
2.17704 -42.8843 23.6399 12 16 15
2.17709 -42.8843 23.6583 12 16 15
2.17713 -42.8843 23.6767 12 16 15
2.17718 -42.8843 23.6951 12 16 15
2.17723 -42.8843 23.7135 12 17 16
2.17728 -42.8843 23.7319 13 17 16
2.17733 -42.8843 23.7503 13 17 16
2.17737 -42.8843 23.7687 13 18 16
2.17742 -42.8843 23.7871 14 18 17
2.17747 -42.8843 23.8055 14 19 17
2.17752 -42.8843 23.8239 14 19 17
2.17756 -42.8843 23.8423 15 20 18
2.17761 -42.8843 23.8607 15 20 18
2.17766 -42.8843 23.8791 16 21 19
2.17771 -42.8843 23.8975 16 21 19
2.17776 -42.8843 23.9159 17 22 19
2.10521 -41.4548 23.1365 17 23 20
2.10526 -41.4548 23.1543 18 23 20
2.1053 -41.4548 23.1721 18 24 21
2.10535 -41.4548 23.1899 19 24 21
2.10539 -41.4548 23.2076 19 25 21
2.10544 -41.4548 23.2254 20 25 21
2.10549 -41.4548 23.2432 20 26 22
2.10553 -41.4548 23.261 20 26 22
2.10558 -41.4548 23.2788 21 26 22
2.10563 -41.4548 23.2966 21 27 22
2.15966 -42.5177 23.9122 21 27 22
2.15971 -42.5177 23.9304 21 27 22
2.17838 -42.8843 24.1551 21 26 22
2.17842 -42.8843 24.1735 21 26 22
2.17847 -42.8843 24.1919 20 26 22
2.17852 -42.8843 24.2103 20 25 22
2.17857 -42.8843 24.2287 19 25 21
2.17861 -42.8843 24.2471 19 24 21
2.17866 -42.8843 24.2655 19 24 21
2.17871 -42.8843 24.2839 18 23 20
2.17876 -42.8843 24.3023 18 23 20
2.17881 -42.8843 24.3207 17 22 20
2.17885 -42.8843 24.3391 17 21 19
2.1789 -42.8843 24.3575 16 21 19
2.25677 -44.4158 25.2465 16 20 19
2.25682 -44.4158 25.2656 15 20 19
2.25687 -44.4158 25.2846 15 20 18
2.25692 -44.4158 25.3037 15 19 18
2.25697 -44.4158 25.3227 14 19 18
2.25702 -44.4158 25.3418 14 19 18
2.25707 -44.4158 25.3608 14 18 18
2.25711 -44.4158 25.3799 13 18 18
2.25716 -44.4158 25.399 13 18 17
2.25721 -44.4158 25.418 13 17 17
2.25726 -44.4158 25.4371 13 17 17
2.25731 -44.4158 25.4561 12 17 17
2.25736 -44.4158 25.4752 12 17 17
2.25741 -44.4158 25.4943 13 18 17
2.25746 -44.4158 25.5133 13 18 18
2.25751 -44.4158 25.5324 13 19 19
2.34938 -46.0554 22.3077 28 34 28
2.34943 -46.0554 22.3275 27 33 27
2.34948 -46.0554 22.3472 27 33 26
2.34953 -46.0554 22.367 26 33 26
2.34958 -46.0554 22.3868 26 33 26
2.34963 -46.0554 22.4065 27 33 26
2.34968 -46.0554 22.4263 27 33 26
2.34974 -46.0554 22.446 28 34 27
2.26587 -44.4106 21.6635 28 35 27
2.26592 -44.4106 21.6825 29 35 27
2.26597 -44.4106 21.7016 30 36 28
2.26601 -44.4106 21.7206 31 37 29
2.26606 -44.4106 21.7397 32 39 29
2.26611 -44.4106 21.7588 33 40 30
2.18802 -42.8792 21.0269 35 41 32
2.18807 -42.8792 21.0453 36 43 33
2.18812 -42.8792 21.0637 37 44 34
2.18816 -42.8792 21.0821 38 45 35
2.18821 -42.8792 21.1005 39 47 36
2.18826 -42.8792 21.1189 40 47 37
2.18831 -42.8792 21.1373 41 48 38
2.18835 -42.8792 21.1557 42 49 39
2.1884 -42.8792 21.1741 42 49 39
2.18845 -42.8792 21.1925 42 50 40
2.1885 -42.8792 21.2109 42 49 40
2.18854 -42.8792 21.2293 42 49 40
2.18859 -42.8792 21.2477 41 48 40
2.18864 -42.8792 21.2661 41 48 39
2.18869 -42.8792 21.2845 40 47 39
2.18874 -42.8792 21.3029 39 45 38
2.18878 -42.8792 21.3213 38 44 38
2.18883 -42.8792 21.3397 36 43 37
2.18888 -42.8792 21.3581 35 41 36
2.18893 -42.8792 21.3765 34 40 34
2.18897 -42.8792 21.3949 32 38 33
2.18902 -42.8792 21.4133 31 37 32
2.18907 -42.8792 21.4317 29 35 31
2.18912 -42.8792 21.4501 28 34 30
2.18917 -42.8792 21.4685 26 32 28
2.18921 -42.8792 21.4869 25 31 27
2.18926 -42.8792 21.5053 24 30 26
2.18931 -42.8792 21.5237 23 29 25
2.18936 -42.8792 21.5421 22 28 24
2.1894 -42.8792 21.5605 21 28 24
2.18945 -42.8792 21.5789 21 27 23
2.1895 -42.8792 21.5973 20 27 23
2.18955 -42.8792 21.6157 20 26 22
2.1896 -42.8792 21.6341 19 26 22
2.18964 -42.8792 21.6525 19 26 21
2.18969 -42.8792 21.6709 19 25 21
2.18974 -42.8792 21.6893 19 25 21
2.18979 -42.8792 21.7077 18 25 20
2.18983 -42.8792 21.7261 18 25 20
2.18988 -42.8792 21.7445 18 24 19
2.18993 -42.8792 21.7629 18 24 19
2.18998 -42.8792 21.7813 17 23 19
2.19002 -42.8792 21.7997 17 22 18
2.19007 -42.8792 21.8181 16 22 17
2.19012 -42.8792 21.8365 15 21 17
2.19017 -42.8792 21.8549 15 20 16
2.19022 -42.8792 21.8733 14 19 15
2.19026 -42.8792 21.8917 14 18 15
2.19031 -42.8792 21.9101 13 17 14
2.19036 -42.8792 21.9285 12 16 14
2.19041 -42.8792 21.9469 12 15 13
2.19045 -42.8792 21.9653 11 15 13
2.1905 -42.8792 21.9837 11 14 12
2.19055 -42.8792 22.0021 11 14 12
2.1906 -42.8792 22.0205 10 13 12
2.19065 -42.8792 22.0389 10 13 12
2.19069 -42.8792 22.0573 10 13 11
2.19074 -42.8792 22.0757 10 13 12
2.19079 -42.8792 22.0941 10 13 12
2.19084 -42.8792 22.1125 10 13 12
2.19088 -42.8792 22.1309 11 13 12
2.19093 -42.8792 22.1493 11 13 12
2.19098 -42.8792 22.1677 11 14 12
2.19103 -42.8792 22.1861 12 14 12
2.19108 -42.8792 22.2045 12 14 13
2.19112 -42.8792 22.2229 12 15 13
2.19117 -42.8792 22.2413 12 15 13
2.19122 -42.8792 22.2597 13 15 13
2.19127 -42.8792 22.2781 13 15 13
2.19131 -42.8792 22.2965 13 16 14
2.19136 -42.8792 22.3149 13 16 14
2.19141 -42.8792 22.3333 14 16 14
2.19146 -42.8792 22.3517 14 16 14
2.1915 -42.8792 22.3701 14 17 14
2.1363 -41.7982 21.8241 14 17 14
2.13635 -41.7982 21.8421 14 17 14
2.11859 -41.4499 21.6778 14 17 14
2.11864 -41.4499 21.6956 15 17 14
2.11869 -41.4499 21.7134 15 17 14
2.11873 -41.4499 21.7312 15 17 14
2.11878 -41.4499 21.749 15 17 14
2.11882 -41.4499 21.7668 14 17 14
2.11887 -41.4499 21.7846 14 17 14
2.11892 -41.4499 21.8024 14 16 14
2.10145 -41.1073 21.6398 14 16 14
2.1015 -41.1073 21.6574 14 16 14
2.0507 -40.1128 21.1507 13 16 14
2.05074 -40.1128 21.1679 13 15 13
2.05079 -40.1128 21.1851 13 15 13
2.05083 -40.1128 21.2023 13 15 13
2.05088 -40.1128 21.2195 12 15 13
2.05092 -40.1128 21.2368 12 14 13
2.00252 -39.1652 20.7519 12 14 13
2.00256 -39.1652 20.7687 12 14 12
1.98696 -38.8592 20.6231 11 14 12
1.987 -38.8592 20.6398 11 14 12
1.98705 -38.8592 20.6565 11 13 12
1.98709 -38.8592 20.6732 11 13 12
1.98713 -38.8592 20.6898 11 13 12
1.98718 -38.8592 20.7065 11 13 12
1.98722 -38.8592 20.7232 10 13 12
1.98726 -38.8592 20.7399 10 13 12
1.98731 -38.8592 20.7566 10 13 12
1.98735 -38.8592 20.7732 10 13 12
1.98739 -38.8592 20.7899 10 13 12
1.98744 -38.8592 20.8066 10 14 12
1.98748 -38.8592 20.8233 11 14 12
1.98752 -38.8592 20.8399 11 14 13
1.98757 -38.8592 20.8566 11 14 13
1.98761 -38.8592 20.8733 11 14 13
2.05177 -40.1128 21.5638 11 14 13
2.05181 -40.1128 21.581 11 15 13
2.05186 -40.1128 21.5983 11 15 13
2.0519 -40.1128 21.6155 11 15 13
2.05195 -40.1128 21.6327 11 15 13
2.05199 -40.1128 21.6499 11 15 13
2.12044 -41.4499 22.3894 11 15 13
2.12049 -41.4499 22.4071 11 15 14
2.1749 -42.5127 22.9999 11 15 14
2.17495 -42.5127 23.0182 11 15 14
2.25199 -44.0176 23.8519 11 16 14
2.25204 -44.0176 23.8708 12 16 14
2.2722 -44.4106 24.1029 12 16 14
2.27225 -44.4106 24.122 12 16 14
2.27229 -44.4106 24.1411 12 16 14
2.27234 -44.4106 24.1601 12 16 14
2.27239 -44.4106 24.1792 12 16 14
2.27244 -44.4106 24.1982 12 16 14
2.25238 -44.0176 24.003 12 16 14
2.25243 -44.0176 24.0219 12 16 14
2.25248 -44.0176 24.0408 12 16 14
2.25253 -44.0176 24.0596 12 16 15
2.25258 -44.0176 24.0785 12 16 15
2.25263 -44.0176 24.0974 12 16 15
2.25268 -44.0176 24.1163 12 16 15
2.25273 -44.0176 24.1352 12 16 15
2.19451 -42.8792 23.5294 12 16 15
2.19456 -42.8792 23.5478 12 16 15
2.19461 -42.8792 23.5662 12 16 15
2.19466 -42.8792 23.5846 12 16 15
2.1947 -42.8792 23.603 12 16 15
2.19475 -42.8792 23.6214 12 16 15
2.1948 -42.8792 23.6398 12 16 15
2.19485 -42.8792 23.6582 12 16 15
2.19489 -42.8792 23.6766 12 16 15
2.19494 -42.8792 23.695 12 16 15
2.19499 -42.8792 23.7134 12 17 15
2.19504 -42.8792 23.7318 13 17 16
2.19509 -42.8792 23.7502 13 17 16
2.19513 -42.8792 23.7686 13 18 16
2.19518 -42.8792 23.787 14 18 17
2.19523 -42.8792 23.8054 14 19 17
2.19528 -42.8792 23.8238 14 19 17
2.19532 -42.8792 23.8422 15 20 18
2.19537 -42.8792 23.8606 15 20 18
2.19542 -42.8792 23.879 16 21 18
2.19547 -42.8792 23.8974 16 21 19
2.19552 -42.8792 23.9158 17 22 19
2.12238 -41.4499 23.1364 17 23 20
2.12242 -41.4499 23.1542 18 23 20
2.12247 -41.4499 23.172 18 24 20
2.12252 -41.4499 23.1898 19 24 21
2.12256 -41.4499 23.2076 19 25 21
2.12261 -41.4499 23.2254 19 25 21
2.12265 -41.4499 23.2432 20 25 22
2.1227 -41.4499 23.261 20 26 22
2.12275 -41.4499 23.2787 20 26 22
2.12279 -41.4499 23.2965 21 26 22
2.14068 -41.7982 23.5102 21 26 22
2.14072 -41.7982 23.5282 21 26 22
2.19614 -42.8792 24.1551 21 26 22
2.19618 -42.8792 24.1735 20 26 22
2.19623 -42.8792 24.1919 20 25 22
2.19628 -42.8792 24.2103 20 25 21
2.19633 -42.8792 24.2287 19 25 21
2.19637 -42.8792 24.2471 19 24 21
2.19642 -42.8792 24.2655 18 24 21
2.19647 -42.8792 24.2839 18 23 20
2.19652 -42.8792 24.3023 18 22 20
2.19657 -42.8792 24.3207 17 22 20
2.19661 -42.8792 24.3391 17 21 19
2.19666 -42.8792 24.3575 16 21 19
2.27516 -44.4106 25.2464 16 20 19
2.27521 -44.4106 25.2655 15 20 19
2.27526 -44.4106 25.2846 15 20 18
2.27531 -44.4106 25.3036 14 19 18
2.27536 -44.4106 25.3227 14 19 18
2.27541 -44.4106 25.3417 14 19 18
2.27546 -44.4106 25.3608 14 18 18
2.27551 -44.4106 25.3799 13 18 18
2.27556 -44.4106 25.3989 13 18 17
2.27561 -44.4106 25.418 13 17 17
2.27566 -44.4106 25.437 13 17 17
2.27571 -44.4106 25.4561 13 17 17
2.27576 -44.4106 25.4751 12 17 17
2.27581 -44.4106 25.4942 13 18 17
2.27585 -44.4106 25.5133 13 18 18
2.2759 -44.4106 25.5323 13 19 19
2.36845 -46.0499 22.3076 28 34 27
2.3685 -46.0499 22.3274 27 33 27
2.36856 -46.0499 22.3472 26 32 26
2.36861 -46.0499 22.3669 26 32 26
2.36866 -46.0499 22.3867 26 32 26
2.36871 -46.0499 22.4065 26 33 26
2.36876 -46.0499 22.4262 27 33 26
2.36881 -46.0499 22.446 27 33 26
2.30484 -44.8053 21.8586 28 34 26
2.30489 -44.8053 21.8778 29 35 27
2.28436 -44.4053 21.7015 29 35 27
2.28441 -44.4053 21.7206 30 36 28
2.28446 -44.4053 21.7396 31 38 29
2.28451 -44.4053 21.7587 32 39 30
2.20578 -42.8741 21.0268 34 40 31
2.20583 -42.8741 21.0452 35 42 32
2.20587 -42.8741 21.0636 36 43 33
2.20592 -42.8741 21.082 37 44 34
2.20597 -42.8741 21.1004 38 45 35
2.20602 -42.8741 21.1188 39 46 36
2.20607 -42.8741 21.1372 40 47 37
2.20611 -42.8741 21.1556 41 48 38
2.20616 -42.8741 21.174 41 48 38
2.20621 -42.8741 21.1924 41 48 39
2.20626 -42.8741 21.2108 41 48 39
2.2063 -42.8741 21.2292 41 48 39
2.20635 -42.8741 21.2476 40 47 39
2.2064 -42.8741 21.266 40 46 38
2.20645 -42.8741 21.2844 39 45 38
2.2065 -42.8741 21.3028 38 44 37
2.20654 -42.8741 21.3212 37 43 36
2.20659 -42.8741 21.3396 36 42 36
2.20664 -42.8741 21.358 34 40 35
2.20669 -42.8741 21.3764 33 39 34
2.20673 -42.8741 21.3948 32 38 32
2.20678 -42.8741 21.4132 30 36 31
2.20683 -42.8741 21.4316 29 35 30
2.20688 -42.8741 21.45 28 33 29
2.20693 -42.8741 21.4684 26 32 28
2.20697 -42.8741 21.4868 25 31 27
2.20702 -42.8741 21.5052 24 30 26
2.20707 -42.8741 21.5236 23 29 25
2.20712 -42.8741 21.542 22 28 24
2.20716 -42.8741 21.5604 21 27 23
2.20721 -42.8741 21.5788 20 27 23
2.20726 -42.8741 21.5972 20 26 22
2.20731 -42.8741 21.6156 19 26 21
2.20735 -42.8741 21.634 19 25 21
2.2074 -42.8741 21.6524 19 25 21
2.20745 -42.8741 21.6708 18 24 20
2.2075 -42.8741 21.6893 18 24 20
2.20755 -42.8741 21.7077 18 24 19
2.20759 -42.8741 21.7261 18 24 19
2.20764 -42.8741 21.7445 17 23 19
2.20769 -42.8741 21.7629 17 23 18
2.20774 -42.8741 21.7813 16 22 18
2.20778 -42.8741 21.7997 16 21 17
2.20783 -42.8741 21.8181 15 20 17
2.20788 -42.8741 21.8365 15 20 16
2.20793 -42.8741 21.8549 14 19 15
2.20798 -42.8741 21.8733 14 18 15
2.20802 -42.8741 21.8917 13 17 14
2.20807 -42.8741 21.9101 12 16 14
2.20812 -42.8741 21.9285 12 15 13
2.20817 -42.8741 21.9469 11 15 13
2.20821 -42.8741 21.9653 11 14 12
2.20826 -42.8741 21.9837 11 14 12
2.20831 -42.8741 22.0021 10 13 12
2.20836 -42.8741 22.0205 10 13 12
2.20841 -42.8741 22.0389 10 13 11
2.20845 -42.8741 22.0573 10 13 11
2.2085 -42.8741 22.0757 10 13 12
2.20855 -42.8741 22.0941 10 13 12
2.2086 -42.8741 22.1125 11 13 12
2.20864 -42.8741 22.1309 11 13 12
2.20869 -42.8741 22.1493 11 14 12
2.20874 -42.8741 22.1677 11 14 12
2.20879 -42.8741 22.1861 12 14 13
2.20883 -42.8741 22.2045 12 15 13
2.20888 -42.8741 22.2229 12 15 13
2.20893 -42.8741 22.2413 13 15 13
2.20898 -42.8741 22.2597 13 15 13
2.20903 -42.8741 22.2781 13 16 14
2.20907 -42.8741 22.2965 13 16 14
2.20912 -42.8741 22.3149 14 16 14
2.20917 -42.8741 22.3333 14 16 14
2.19033 -42.5076 22.1607 14 17 14
2.19038 -42.5076 22.1789 14 17 14
2.13567 -41.4449 21.6422 14 17 14
2.13571 -41.4449 21.66 15 17 14
2.13576 -41.4449 21.6778 15 17 15
2.13581 -41.4449 21.6956 15 17 15
2.13585 -41.4449 21.7134 15 17 15
2.1359 -41.4449 21.7312 15 17 15
2.13595 -41.4449 21.7489 15 17 14
2.13599 -41.4449 21.7667 15 17 14
2.15399 -41.7932 21.9676 14 17 14
2.15403 -41.7932 21.9855 14 17 14
2.0674 -40.108 21.1851 13 15 13
2.06745 -40.108 21.2023 13 15 13
2.06749 -40.108 21.2195 12 15 13
2.06754 -40.108 21.2367 12 14 13
2.00297 -38.8546 20.5897 12 14 13
2.00301 -38.8546 20.6064 12 14 12
2.00305 -38.8546 20.6231 11 14 12
2.0031 -38.8546 20.6398 11 14 12
2.00314 -38.8546 20.6565 11 13 12
2.00318 -38.8546 20.6731 11 13 12
2.00323 -38.8546 20.6898 11 13 12
2.00327 -38.8546 20.7065 11 13 12
2.00331 -38.8546 20.7232 10 13 12
2.00336 -38.8546 20.7398 10 13 12
2.0034 -38.8546 20.7565 10 13 12
2.00344 -38.8546 20.7732 10 13 12
2.00349 -38.8546 20.7899 10 13 12
2.00353 -38.8546 20.8065 10 14 12
2.00357 -38.8546 20.8232 11 14 12
2.00362 -38.8546 20.8399 11 14 13
2.00366 -38.8546 20.8566 11 14 13
2.0037 -38.8546 20.8732 11 14 13
2.06838 -40.108 21.5638 11 14 13
2.06843 -40.108 21.581 11 15 13
2.06847 -40.108 21.5982 11 15 13
2.06852 -40.108 21.6154 11 15 13
2.06856 -40.108 21.6326 11 15 13
2.06861 -40.108 21.6499 11 15 13
2.15557 -41.7932 22.5775 11 15 13
2.15562 -41.7932 22.5954 11 15 14
2.23064 -43.2469 23.3999 11 15 14
2.23069 -43.2469 23.4184 11 15 14
2.29049 -44.4053 24.0648 11 16 14
2.29054 -44.4053 24.0838 11 16 14
2.29059 -44.4053 24.1029 12 16 14
2.29064 -44.4053 24.122 12 16 14
2.29069 -44.4053 24.141 12 16 14
2.29074 -44.4053 24.1601 12 16 14
2.29079 -44.4053 24.1791 12 16 14
2.29084 -44.4053 24.1982 12 16 14
2.29089 -44.4053 24.2172 12 16 14
2.29094 -44.4053 24.2363 12 16 14
2.29099 -44.4053 24.2554 12 16 14
2.29103 -44.4053 24.2744 12 16 14
2.29108 -44.4053 24.2935 12 16 14
2.29113 -44.4053 24.3125 12 16 15
2.29118 -44.4053 24.3316 12 16 15
2.29123 -44.4053 24.3507 12 16 15
2.21227 -42.8741 23.5294 12 16 15
2.21232 -42.8741 23.5478 12 16 15
2.21237 -42.8741 23.5662 12 16 15
2.21242 -42.8741 23.5846 12 16 15
2.21246 -42.8741 23.603 12 16 15
2.21251 -42.8741 23.6214 12 16 15
2.21256 -42.8741 23.6398 12 16 15
2.21261 -42.8741 23.6582 12 16 15
2.21265 -42.8741 23.6766 12 16 15
2.2127 -42.8741 23.695 12 16 15
2.21275 -42.8741 23.7134 12 17 15
2.2128 -42.8741 23.7318 12 17 16
2.21285 -42.8741 23.7502 13 17 16
2.21289 -42.8741 23.7686 13 18 16
2.21294 -42.8741 23.787 14 18 17
2.21299 -42.8741 23.8054 14 19 17
2.21304 -42.8741 23.8238 14 19 17
2.21308 -42.8741 23.8422 15 20 18
2.21313 -42.8741 23.8606 15 20 18
2.21318 -42.8741 23.879 16 21 18
2.21323 -42.8741 23.8974 16 21 19
2.21328 -42.8741 23.9158 17 22 19
2.13955 -41.4449 23.1364 17 22 19
2.13959 -41.4449 23.1542 18 23 20
2.13964 -41.4449 23.172 18 23 20
2.13968 -41.4449 23.1898 18 24 21
2.13973 -41.4449 23.2075 19 24 21
2.13978 -41.4449 23.2253 19 25 21
2.13982 -41.4449 23.2431 20 25 21
2.13987 -41.4449 23.2609 20 26 22
2.13991 -41.4449 23.2787 20 26 22
2.13996 -41.4449 23.2965 21 26 22
2.14001 -41.4449 23.3143 21 26 22
2.14005 -41.4449 23.3321 21 26 22
2.2139 -42.8741 24.155 20 26 22
2.21394 -42.8741 24.1734 20 26 22
2.21399 -42.8741 24.1918 20 25 22
2.21404 -42.8741 24.2102 20 25 21
2.21409 -42.8741 24.2286 19 24 21
2.21413 -42.8741 24.247 19 24 21
2.21418 -42.8741 24.2654 18 23 20
2.21423 -42.8741 24.2838 18 23 20
2.21428 -42.8741 24.3022 17 22 20
2.21433 -42.8741 24.3206 17 22 20
2.21437 -42.8741 24.339 17 21 19
2.21442 -42.8741 24.3574 16 21 19
2.29356 -44.4053 25.2464 16 20 19
2.29361 -44.4053 25.2655 15 20 19
2.29366 -44.4053 25.2845 15 20 18
2.29371 -44.4053 25.3036 14 19 18
2.29375 -44.4053 25.3226 14 19 18
2.2938 -44.4053 25.3417 14 19 18
2.29385 -44.4053 25.3608 14 18 18
2.2939 -44.4053 25.3798 13 18 18
2.29395 -44.4053 25.3989 13 18 17
2.294 -44.4053 25.4179 13 17 17
2.29405 -44.4053 25.437 13 17 17
2.2941 -44.4053 25.456 13 17 17
2.29415 -44.4053 25.4751 12 17 17
2.2942 -44.4053 25.4942 13 18 17
2.29425 -44.4053 25.5132 13 18 18
2.2943 -44.4053 25.5323 13 19 18
2.38753 -46.0445 22.3076 28 34 27
2.38758 -46.0445 22.3274 27 33 27
2.38763 -46.0445 22.3471 27 33 26
2.38768 -46.0445 22.3669 26 32 26
2.38773 -46.0445 22.3867 26 32 26
2.38778 -46.0445 22.4064 26 32 26
2.38784 -46.0445 22.4262 27 33 26
2.38789 -46.0445 22.4459 27 33 26
2.36603 -45.622 22.2596 28 34 26
2.36608 -45.622 22.2792 28 34 26
2.30275 -44.4 21.7015 29 35 27
2.3028 -44.4 21.7205 30 36 27
2.30285 -44.4 21.7396 31 37 28
2.3029 -44.4 21.7587 32 38 29
2.22354 -42.869 21.0268 33 39 30
2.22359 -42.869 21.0452 34 40 31
2.22363 -42.869 21.0636 35 42 32
2.22368 -42.869 21.082 36 43 33
2.22373 -42.869 21.1004 37 44 34
2.22378 -42.869 21.1188 38 45 35
2.22383 -42.869 21.1372 39 46 36
2.22387 -42.869 21.1556 39 46 36
2.22392 -42.869 21.174 40 47 37
2.22397 -42.869 21.1924 40 47 37
2.22402 -42.869 21.2108 40 47 37
2.22406 -42.869 21.2292 40 46 37
2.22411 -42.869 21.2476 39 46 37
2.22416 -42.869 21.266 39 45 37
2.22421 -42.869 21.2844 38 44 36
2.22426 -42.869 21.3028 37 43 36
2.2243 -42.869 21.3212 36 42 35
2.22435 -42.869 21.3396 35 41 34
2.2244 -42.869 21.358 34 40 34
