ply
format ascii 1.0
comment author : Loiseau & Broux
comment object : 3d point Cloud
element vertex 1375
property float x
property float y
property float z
property uchar red
property uchar green
property uchar blue
end_header
0.189088 -63.0251 40.9065 40 53 45
0.189131 -63.0251 40.9332 42 56 48
0.189174 -63.0251 40.9599 44 59 50
0.189217 -63.0251 40.9866 46 61 52
0.18926 -63.0251 41.0132 48 64 55
0.189304 -63.0251 41.0399 50 66 57
0.189347 -63.0251 41.0666 52 69 59
0.18939 -63.0251 41.0933 54 71 61
0.189433 -63.0251 41.12 56 73 63
0.199449 -66.3422 43.3123 58 75 64
0.199494 -66.3422 43.3404 59 76 66
0.210625 -70.0279 45.7778 60 77 67
0.210673 -70.0279 45.8074 61 78 68
0.184876 -60.7471 41.0482 40 50 43
0.184918 -60.7471 41.0739 38 47 41
0.182758 -60.0239 40.6103 36 45 39
0.182799 -60.0239 40.6357 34 42 37
0.18284 -60.0239 40.6612 32 40 35
0.182881 -60.0239 40.6866 30 37 33
0.182922 -60.0239 40.712 28 35 31
0.182963 -60.0239 40.7374 26 33 30
0.183005 -60.0239 40.7628 24 31 28
0.183046 -60.0239 40.7882 22 29 26
0.183087 -60.0239 40.8136 20 27 24
0.183128 -60.0239 40.839 19 25 23
0.183169 -60.0239 40.8645 18 24 22
0.18321 -60.0239 40.8899 17 23 21
0.183251 -60.0239 40.9153 16 22 21
0.183293 -60.0239 40.9407 16 22 20
0.175 -57.2955 39.104 15 21 20
0.17504 -57.2955 39.1283 15 21 19
0.175079 -57.2955 39.1525 15 21 19
0.175118 -57.2955 39.1768 15 21 19
0.177171 -57.9541 39.6516 15 21 19
0.17721 -57.9541 39.6762 15 20 19
0.17725 -57.9541 39.7007 15 21 18
0.17729 -57.9541 39.7252 15 21 19
0.17733 -57.9541 39.7498 15 21 19
0.177369 -57.9541 39.7743 15 21 19
0.177409 -57.9541 39.7988 16 22 19
0.177449 -57.9541 39.8234 16 22 20
0.183827 -60.0239 41.271 17 23 20
0.183869 -60.0239 41.2964 17 23 20
0.18391 -60.0239 41.3219 18 24 21
0.183951 -60.0239 41.3473 18 25 21
0.183992 -60.0239 41.3727 18 25 22
0.184033 -60.0239 41.3981 19 26 22
0.184074 -60.0239 41.4235 19 26 23
0.184115 -60.0239 41.4489 20 27 23
0.184157 -60.0239 41.4743 20 28 23
0.184198 -60.0239 41.4997 21 28 24
0.184239 -60.0239 41.5252 21 29 24
0.18428 -60.0239 41.5506 21 29 25
0.193537 -63.0251 43.6548 22 29 25
0.19358 -63.0251 43.6815 22 30 25
0.209323 -68.1352 47.252 22 30 25
0.20937 -68.1352 47.2809 22 30 26
0.248841 -74.1384 45.7082 56 63 50
0.248891 -74.1384 45.7396 57 63 50
0.235112 -70.0196 43.2281 58 63 50
0.23516 -70.0196 43.2578 58 63 49
0.235208 -70.0196 43.2874 58 62 49
0.235256 -70.0196 43.3171 58 61 48
0.235304 -70.0196 43.3467 57 60 46
0.235352 -70.0196 43.3764 57 58 45
0.223011 -66.3344 41.1215 55 56 43
0.223056 -66.3344 41.1496 54 54 41
0.223102 -66.3344 41.1777 52 52 39
0.223147 -66.3344 41.2057 50 49 37
0.223193 -66.3344 41.2338 48 47 35
0.223238 -66.3344 41.2619 46 44 33
0.223283 -66.3344 41.29 44 42 32
0.223329 -66.3344 41.3181 42 40 30
0.212206 -63.0177 39.2789 40 38 28
0.212249 -63.0177 39.3055 37 35 27
0.212292 -63.0177 39.3322 35 34 26
0.212335 -63.0177 39.3589 33 32 25
0.212379 -63.0177 39.3856 31 31 24
0.212422 -63.0177 39.4123 29 29 24
0.212465 -63.0177 39.439 27 29 23
0.212508 -63.0177 39.4656 26 28 23
0.212551 -63.0177 39.4923 25 28 23
0.212595 -63.0177 39.519 24 27 24
0.212638 -63.0177 39.5457 23 27 24
0.212681 -63.0177 39.5724 23 27 24
0.212724 -63.0177 39.5991 22 28 25
0.212767 -63.0177 39.6257 22 28 25
0.212811 -63.0177 39.6524 22 28 26
0.212854 -63.0177 39.6791 22 29 26
0.212897 -63.0177 39.7058 22 29 27
0.21294 -63.0177 39.7325 22 30 27
0.212983 -63.0177 39.7591 23 30 28
0.213027 -63.0177 39.7858 23 31 28
0.21307 -63.0177 39.8125 24 32 29
0.213113 -63.0177 39.8392 24 32 30
0.213156 -63.0177 39.8659 25 33 31
0.213199 -63.0177 39.8926 25 34 31
0.213243 -63.0177 39.9192 26 35 32
0.213286 -63.0177 39.9459 27 36 33
0.213329 -63.0177 39.9726 27 36 33
0.213372 -63.0177 39.9993 28 37 34
0.210781 -62.2397 39.5318 28 38 34
0.210823 -62.2397 39.5582 28 38 35
0.210866 -62.2397 39.5845 28 38 35
0.210909 -62.2397 39.6109 28 38 35
0.203417 -60.0168 38.2216 28 38 35
0.203458 -60.0168 38.247 28 38 34
0.2035 -60.0168 38.2724 28 38 34
0.203541 -60.0168 38.2978 28 37 34
0.203582 -60.0168 38.3233 28 37 33
0.203623 -60.0168 38.3487 27 36 33
0.203664 -60.0168 38.3741 27 36 32
0.203705 -60.0168 38.3995 27 35 32
0.203746 -60.0168 38.4249 26 35 31
0.203788 -60.0168 38.4503 26 34 31
0.203829 -60.0168 38.4757 25 33 30
0.20387 -60.0168 38.5011 25 33 29
0.203911 -60.0168 38.5266 24 32 29
0.203952 -60.0168 38.552 24 32 28
0.203993 -60.0168 38.5774 24 32 28
0.204034 -60.0168 38.6028 24 32 28
0.204076 -60.0168 38.6282 24 32 28
0.204117 -60.0168 38.6536 24 32 28
0.204158 -60.0168 38.679 24 33 28
0.204199 -60.0168 38.7044 25 34 29
0.20424 -60.0168 38.7298 26 35 30
0.204281 -60.0168 38.7553 26 36 31
0.204322 -60.0168 38.7807 28 38 32
0.204364 -60.0168 38.8061 29 40 34
0.204405 -60.0168 38.8315 31 42 35
0.204446 -60.0168 38.8569 32 44 37
0.214711 -63.0177 40.8264 34 46 39
0.214755 -63.0177 40.8531 36 49 41
0.214798 -63.0177 40.8798 38 51 43
0.214841 -63.0177 40.9065 40 54 46
0.214884 -63.0177 40.9332 42 56 48
0.214927 -63.0177 40.9598 44 59 50
0.214971 -63.0177 40.9865 46 62 52
0.215014 -63.0177 41.0132 48 64 55
0.215057 -63.0177 41.0399 50 66 57
0.2151 -63.0177 41.0666 52 69 59
0.215143 -63.0177 41.0933 54 71 61
0.215187 -63.0177 41.1199 56 73 62
0.226558 -66.3344 43.3122 57 74 64
0.226603 -66.3344 43.3403 59 76 65
0.23924 -70.0196 45.7778 60 77 67
0.239288 -70.0196 45.8074 61 78 68
0.214877 -62.2397 42.0617 39 49 43
0.214919 -62.2397 42.088 37 46 41
0.207285 -60.0168 40.6103 35 44 39
0.207326 -60.0168 40.6357 33 41 37
0.207367 -60.0168 40.6611 31 39 35
0.207408 -60.0168 40.6865 29 37 33
0.207449 -60.0168 40.7119 27 34 31
0.20749 -60.0168 40.7374 25 32 29
0.207532 -60.0168 40.7628 23 30 27
0.207573 -60.0168 40.7882 22 28 25
0.207614 -60.0168 40.8136 20 26 24
0.207655 -60.0168 40.839 18 24 23
0.207696 -60.0168 40.8644 17 23 21
0.207737 -60.0168 40.8898 16 22 21
0.207778 -60.0168 40.9152 15 21 20
0.20782 -60.0168 40.9406 15 21 19
0.198412 -57.2888 39.104 15 21 19
0.198452 -57.2888 39.1282 14 20 19
0.198491 -57.2888 39.1525 14 20 19
0.19853 -57.2888 39.1767 14 20 18
0.205578 -59.3108 40.5846 14 20 18
0.205619 -59.3108 40.6097 14 20 18
0.205659 -59.3108 40.6348 14 20 18
0.2057 -59.3108 40.6599 14 20 18
0.205741 -59.3108 40.685 15 20 18
0.205781 -59.3108 40.7101 15 21 19
0.205822 -59.3108 40.7352 15 21 19
0.205863 -59.3108 40.7603 16 22 19
0.208354 -60.0168 41.271 16 23 20
0.208396 -60.0168 41.2964 17 23 20
0.208437 -60.0168 41.3218 17 24 21
0.208478 -60.0168 41.3472 18 24 21
0.208519 -60.0168 41.3726 18 25 22
0.20856 -60.0168 41.3981 19 26 22
0.208601 -60.0168 41.4235 19 26 23
0.208642 -60.0168 41.4489 20 27 23
0.208684 -60.0168 41.4743 20 28 24
0.208725 -60.0168 41.4997 21 28 24
0.208766 -60.0168 41.5251 21 29 25
0.208807 -60.0168 41.5505 22 30 25
0.219291 -63.0177 43.6547 22 30 25
0.219334 -63.0177 43.6814 22 30 26
0.225002 -64.6335 44.8288 23 31 26
0.225046 -64.6335 44.8562 23 31 26
0.231034 -64.6259 32.2403 25 24 21
0.231078 -64.6259 32.2677 24 24 21
0.265494 -70.9975 42.6344 26 29 25
0.265543 -70.9975 42.6644 27 30 25
0.267441 -70.9975 43.8369 57 63 50
0.26749 -70.9975 43.867 58 62 49
0.263823 -70.0114 43.2874 58 62 48
0.263871 -70.0114 43.317 57 61 48
0.260304 -69.0524 42.7529 57 59 46
0.260351 -69.0524 42.7821 56 58 45
0.250119 -66.3266 41.1214 54 55 43
0.250165 -66.3266 41.1495 53 53 41
0.25021 -66.3266 41.1776 51 51 39
0.250256 -66.3266 41.2057 49 48 37
0.250301 -66.3266 41.2338 47 46 35
0.250347 -66.3266 41.2619 45 43 33
0.250392 -66.3266 41.29 42 41 31
0.250438 -66.3266 41.318 40 39 29
0.240971 -63.8079 39.776 38 36 28
0.241015 -63.8079 39.803 36 34 26
0.238045 -63.0103 39.3322 33 32 25
0.238089 -63.0103 39.3589 31 31 24
0.238132 -63.0103 39.3856 29 29 23
0.238175 -63.0103 39.4122 27 28 23
0.238218 -63.0103 39.4389 26 28 23
0.238261 -63.0103 39.4656 25 27 23
0.238305 -63.0103 39.4923 24 27 23
0.238348 -63.0103 39.519 23 27 23
0.238391 -63.0103 39.5456 23 27 23
0.238434 -63.0103 39.5723 22 27 24
0.238477 -63.0103 39.599 22 27 24
0.238521 -63.0103 39.6257 22 28 25
0.238564 -63.0103 39.6524 22 28 26
0.238607 -63.0103 39.6791 22 29 26
0.23865 -63.0103 39.7057 22 29 27
0.238693 -63.0103 39.7324 22 30 27
0.238737 -63.0103 39.7591 23 30 28
0.23878 -63.0103 39.7858 23 31 29
0.238823 -63.0103 39.8125 24 32 29
0.238866 -63.0103 39.8391 24 33 30
0.238909 -63.0103 39.8658 25 34 31
0.238953 -63.0103 39.8925 26 35 32
0.238996 -63.0103 39.9192 26 35 32
0.239039 -63.0103 39.9459 27 36 33
0.239082 -63.0103 39.9726 27 37 34
0.239125 -63.0103 39.9992 28 37 34
0.239169 -63.0103 40.0259 28 38 35
0.239212 -63.0103 40.0526 28 38 35
0.239255 -63.0103 40.0793 29 38 35
0.239298 -63.0103 40.106 29 38 35
0.230691 -60.7328 38.6821 29 38 35
0.230732 -60.7328 38.7078 29 38 35
0.228027 -60.0098 38.2724 28 38 34
0.228068 -60.0098 38.2978 28 37 34
0.228109 -60.0098 38.3232 28 37 34
0.22815 -60.0098 38.3486 28 37 33
0.228191 -60.0098 38.374 27 36 33
0.228232 -60.0098 38.3995 27 35 32
0.228273 -60.0098 38.4249 26 35 31
0.228315 -60.0098 38.4503 26 34 31
0.228356 -60.0098 38.4757 25 34 30
0.228397 -60.0098 38.5011 25 33 29
0.228438 -60.0098 38.5265 25 33 29
0.228479 -60.0098 38.5519 24 32 29
0.22852 -60.0098 38.5773 24 32 28
0.228561 -60.0098 38.6027 24 32 28
0.228603 -60.0098 38.6282 24 33 28
0.228644 -60.0098 38.6536 24 33 28
0.228685 -60.0098 38.679 25 34 29
0.228726 -60.0098 38.7044 25 35 30
0.228767 -60.0098 38.7298 26 36 30
0.228808 -60.0098 38.7552 27 37 31
0.228849 -60.0098 38.7806 28 39 33
0.228891 -60.0098 38.806 30 40 34
0.228932 -60.0098 38.8315 31 42 36
0.228973 -60.0098 38.8569 33 45 38
0.240465 -63.0103 40.8264 35 47 39
0.240508 -63.0103 40.8531 36 49 41
0.240551 -63.0103 40.8798 38 52 44
0.240594 -63.0103 40.9064 40 54 46
0.240637 -63.0103 40.9331 42 57 48
0.240681 -63.0103 40.9598 44 59 50
0.240724 -63.0103 40.9865 47 62 52
0.240767 -63.0103 41.0132 49 64 55
0.24081 -63.0103 41.0398 50 67 57
0.240853 -63.0103 41.0665 52 69 59
0.240897 -63.0103 41.0932 54 71 60
0.24094 -63.0103 41.1199 56 73 62
0.250372 -65.4652 42.7497 57 74 64
0.250417 -65.4652 42.7774 59 76 65
0.264186 -69.0524 45.1506 60 77 66
0.264233 -69.0524 45.1799 61 78 67
0.243316 -63.0103 42.5874 39 49 42
0.243359 -63.0103 42.6141 37 46 40
0.231812 -60.0098 40.6103 35 43 38
0.231853 -60.0098 40.6357 33 41 36
0.231894 -60.0098 40.6611 31 39 34
0.231935 -60.0098 40.6865 29 36 32
0.231976 -60.0098 40.7119 27 34 30
0.232017 -60.0098 40.7373 25 32 29
0.232059 -60.0098 40.7627 23 29 27
0.2321 -60.0098 40.7881 21 27 25
0.232141 -60.0098 40.8136 20 26 24
0.232182 -60.0098 40.839 18 24 22
0.232223 -60.0098 40.8644 17 23 21
0.232264 -60.0098 40.8898 16 22 20
0.229572 -59.3038 40.4338 15 21 20
0.229613 -59.3038 40.459 15 20 19
0.221825 -57.2821 39.1039 14 20 19
0.221864 -57.2821 39.1282 14 20 18
0.224454 -57.9405 39.6025 14 20 18
0.224493 -57.9405 39.627 14 20 18
0.232552 -60.0098 41.0677 14 19 18
0.232593 -60.0098 41.0931 14 19 18
0.232635 -60.0098 41.1185 14 20 18
0.232676 -60.0098 41.1439 14 20 18
0.232717 -60.0098 41.1693 14 20 18
0.232758 -60.0098 41.1947 15 21 18
0.232799 -60.0098 41.2201 15 21 19
0.23284 -60.0098 41.2455 15 22 19
0.232881 -60.0098 41.271 16 22 20
0.232923 -60.0098 41.2964 17 23 20
0.232964 -60.0098 41.3218 17 24 20
0.233005 -60.0098 41.3472 18 24 21
0.233046 -60.0098 41.3726 18 25 21
0.233087 -60.0098 41.398 19 26 22
0.233128 -60.0098 41.4234 19 26 23
0.233169 -60.0098 41.4488 20 27 23
0.233211 -60.0098 41.4743 20 28 24
0.233252 -60.0098 41.4997 21 29 24
0.233293 -60.0098 41.5251 21 29 25
0.233334 -60.0098 41.5505 22 30 25
0.242019 -62.2324 43.1157 22 31 26
0.242061 -62.2324 43.1421 23 31 26
0.24513 -63.0103 43.7081 23 32 27
0.245173 -63.0103 43.7347 24 32 27
0.305052 -73.0468 45.1075 57 63 50
0.305102 -73.0468 45.1385 57 62 49
0.292438 -70.0032 43.2873 57 62 49
0.292486 -70.0032 43.317 57 61 48
0.280832 -67.2031 41.6128 56 59 46
0.280878 -67.2031 41.6412 55 57 44
0.277228 -66.3188 41.1214 54 55 43
0.277274 -66.3188 41.1495 52 53 41
0.277319 -66.3188 41.1776 50 50 39
0.277365 -66.3188 41.2057 48 48 36
0.27741 -66.3188 41.2337 46 45 34
0.277456 -66.3188 41.2618 43 42 32
0.277501 -66.3188 41.2899 41 40 30
0.277546 -66.3188 41.318 39 38 29
0.273987 -65.4576 40.8091 36 35 27
0.274032 -65.4576 40.8368 34 33 25
0.263799 -63.0029 39.3321 32 31 24
0.263842 -63.0029 39.3588 30 30 23
0.263885 -63.0029 39.3855 28 28 23
0.263928 -63.0029 39.4122 26 27 22
0.263972 -63.0029 39.4389 25 27 22
0.264015 -63.0029 39.4656 24 26 22
0.264058 -63.0029 39.4922 23 26 22
0.264101 -63.0029 39.5189 22 26 22
0.264144 -63.0029 39.5456 22 26 23
0.264188 -63.0029 39.5723 21 26 23
0.264231 -63.0029 39.599 21 27 24
0.264274 -63.0029 39.6257 21 27 25
0.264317 -63.0029 39.6523 22 28 25
0.26436 -63.0029 39.679 22 28 26
0.264404 -63.0029 39.7057 22 29 26
0.264447 -63.0029 39.7324 22 30 27
0.26449 -63.0029 39.7591 23 30 28
0.264533 -63.0029 39.7857 23 31 29
0.264576 -63.0029 39.8124 24 32 29
0.26462 -63.0029 39.8391 25 33 30
0.264663 -63.0029 39.8658 25 34 31
0.264706 -63.0029 39.8925 26 35 32
0.264749 -63.0029 39.9192 26 36 33
0.264792 -63.0029 39.9458 27 36 33
0.264836 -63.0029 39.9725 28 37 34
0.264879 -63.0029 39.9992 28 38 34
0.264922 -63.0029 40.0259 28 38 35
0.264965 -63.0029 40.0526 29 38 35
0.265008 -63.0029 40.0792 29 38 35
0.265052 -63.0029 40.1059 29 38 35
0.261822 -62.2251 39.6371 29 38 35
0.261865 -62.2251 39.6635 29 38 35
0.252553 -60.0028 38.2724 28 38 34
0.252595 -60.0028 38.2978 28 37 34
0.252636 -60.0028 38.3232 28 37 33
0.252677 -60.0028 38.3486 28 36 33
0.252718 -60.0028 38.374 27 36 32
0.252759 -60.0028 38.3994 27 35 32
0.2528 -60.0028 38.4248 26 35 31
0.252841 -60.0028 38.4502 26 34 31
0.252883 -60.0028 38.4757 25 34 30
0.252924 -60.0028 38.5011 25 33 29
0.252965 -60.0028 38.5265 25 33 29
0.253006 -60.0028 38.5519 24 33 29
0.253047 -60.0028 38.5773 24 33 28
0.253088 -60.0028 38.6027 24 33 28
0.253129 -60.0028 38.6281 24 33 28
0.253171 -60.0028 38.6535 25 34 29
0.253212 -60.0028 38.6789 25 34 29
0.253253 -60.0028 38.7044 26 35 30
0.253294 -60.0028 38.7298 27 36 31
0.253335 -60.0028 38.7552 28 38 32
0.253376 -60.0028 38.7806 29 39 33
0.253417 -60.0028 38.806 30 41 35
0.253459 -60.0028 38.8314 32 43 36
0.2535 -60.0028 38.8568 33 45 38
0.266218 -63.0029 40.8263 35 48 40
0.266261 -63.0029 40.853 37 50 42
0.266304 -63.0029 40.8797 39 52 44
0.266348 -63.0029 40.9064 41 55 46
0.266391 -63.0029 40.9331 43 57 48
0.266434 -63.0029 40.9598 45 60 50
0.266477 -63.0029 40.9864 47 62 52
0.26652 -63.0029 41.0131 49 65 55
0.266564 -63.0029 41.0398 51 67 57
0.266607 -63.0029 41.0665 53 69 59
0.26665 -63.0029 41.0932 54 71 60
0.266693 -63.0029 41.1198 56 73 62
0.270113 -63.8004 41.6674 58 74 64
0.270157 -63.8004 41.6944 59 76 65
0.284611 -67.2031 43.9466 60 77 66
0.284657 -67.2031 43.975 61 78 67
0.269069 -63.0029 42.5874 39 48 42
0.269112 -63.0029 42.614 37 46 40
0.256339 -60.0028 40.6102 35 43 38
0.25638 -60.0028 40.6356 33 41 36
0.256421 -60.0028 40.661 31 38 34
0.256462 -60.0028 40.6865 29 36 32
0.256503 -60.0028 40.7119 27 34 30
0.256544 -60.0028 40.7373 25 31 28
0.256586 -60.0028 40.7627 23 29 27
0.256627 -60.0028 40.7881 21 27 25
0.256668 -60.0028 40.8135 19 25 23
0.256709 -60.0028 40.8389 18 24 22
0.25675 -60.0028 40.8643 17 22 21
0.256791 -60.0028 40.8897 16 21 20
0.247976 -57.9337 39.5043 15 21 19
0.248016 -57.9337 39.5288 14 20 19
0.245237 -57.2754 39.1039 14 20 19
0.245276 -57.2754 39.1281 14 20 18
0.253973 -59.2969 40.5343 14 19 18
0.254014 -59.2969 40.5594 14 19 18
0.257079 -60.0028 41.0676 14 19 18
0.25712 -60.0028 41.093 14 19 18
0.257162 -60.0028 41.1185 14 19 18
0.257203 -60.0028 41.1439 14 20 18
0.257244 -60.0028 41.1693 14 20 18
0.257285 -60.0028 41.1947 14 20 18
0.257326 -60.0028 41.2201 15 21 19
0.257367 -60.0028 41.2455 15 21 19
0.257408 -60.0028 41.2709 16 22 19
0.25745 -60.0028 41.2963 16 23 20
0.257491 -60.0028 41.3217 17 23 20
0.257532 -60.0028 41.3472 17 24 21
0.257573 -60.0028 41.3726 18 25 21
0.257614 -60.0028 41.398 19 26 22
0.257655 -60.0028 41.4234 19 27 23
0.257696 -60.0028 41.4488 20 27 23
0.257738 -60.0028 41.4742 20 28 24
0.257779 -60.0028 41.4996 21 29 24
0.25782 -60.0028 41.525 22 30 25
0.257861 -60.0028 41.5504 22 30 26
0.261009 -60.7257 42.0768 23 31 26
0.261051 -60.7257 42.1025 23 32 27
0.270884 -63.0029 43.708 24 32 27
0.270927 -63.0029 43.7347 24 33 28
0.339836 -74.1124 45.7708 57 63 50
0.339887 -74.1124 45.8022 57 62 50
0.304246 -66.3111 41.0652 56 59 46
0.304291 -66.3111 41.0933 54 57 45
0.304337 -66.3111 41.1214 53 55 43
0.304382 -66.3111 41.1494 51 52 40
0.304428 -66.3111 41.1775 49 49 38
0.304473 -66.3111 41.2056 47 47 36
0.304519 -66.3111 41.2337 44 44 34
0.304564 -66.3111 41.2618 42 42 32
0.30461 -66.3111 41.2899 40 39 30
0.304655 -66.3111 41.318 37 37 28
0.304701 -66.3111 41.346 35 34 26
0.304746 -66.3111 41.3741 33 32 25
0.289552 -62.9955 39.3321 30 30 24
0.289595 -62.9955 39.3588 28 29 23
0.289638 -62.9955 39.3855 26 27 22
0.289682 -62.9955 39.4122 25 26 22
0.289725 -62.9955 39.4388 23 26 21
0.289768 -62.9955 39.4655 22 25 21
0.289811 -62.9955 39.4922 22 25 22
0.289854 -62.9955 39.5189 21 25 22
0.289898 -62.9955 39.5456 21 25 22
0.289941 -62.9955 39.5722 21 26 23
0.289984 -62.9955 39.5989 21 26 23
0.290027 -62.9955 39.6256 21 27 24
0.29007 -62.9955 39.6523 21 27 25
0.290114 -62.9955 39.679 21 28 26
0.290157 -62.9955 39.7057 22 29 26
0.2902 -62.9955 39.7323 22 30 27
0.290243 -62.9955 39.759 23 30 28
0.290286 -62.9955 39.7857 23 31 29
0.29033 -62.9955 39.8124 24 32 29
0.290373 -62.9955 39.8391 24 33 30
0.290416 -62.9955 39.8657 25 34 31
0.290459 -62.9955 39.8924 26 35 32
0.290502 -62.9955 39.9191 26 36 32
0.290546 -62.9955 39.9458 27 36 33
0.290589 -62.9955 39.9725 27 37 34
0.290632 -62.9955 39.9992 28 37 34
0.290675 -62.9955 40.0258 28 38 34
0.290718 -62.9955 40.0525 28 38 35
0.290762 -62.9955 40.0792 28 38 35
0.290805 -62.9955 40.1059 28 38 35
0.290848 -62.9955 40.1326 28 38 34
0.290891 -62.9955 40.1593 28 38 34
0.27708 -59.9957 38.2723 28 37 34
0.277122 -59.9957 38.2977 28 37 34
0.277163 -59.9957 38.3231 28 37 33
0.277204 -59.9957 38.3486 27 36 33
0.277245 -59.9957 38.374 27 36 32
0.277286 -59.9957 38.3994 26 35 31
0.277327 -59.9957 38.4248 26 34 31
0.277368 -59.9957 38.4502 25 34 30
0.27741 -59.9957 38.4756 25 33 30
0.277451 -59.9957 38.501 25 33 29
0.277492 -59.9957 38.5264 24 33 29
0.277533 -59.9957 38.5518 24 33 29
0.277574 -59.9957 38.5773 24 33 28
0.277615 -59.9957 38.6027 24 33 28
0.277656 -59.9957 38.6281 25 33 29
0.277698 -59.9957 38.6535 25 34 29
0.277739 -59.9957 38.6789 25 35 30
0.27778 -59.9957 38.7043 26 36 30
0.277821 -59.9957 38.7297 27 37 31
0.277862 -59.9957 38.7551 28 38 32
0.277903 -59.9957 38.7805 29 40 34
0.277944 -59.9957 38.806 31 42 35
0.277986 -59.9957 38.8314 32 44 37
0.278027 -59.9957 38.8568 34 46 39
0.288367 -62.2178 40.3223 36 48 40
0.288409 -62.2178 40.3486 38 51 42
0.288452 -62.2178 40.375 39 53 44
0.288495 -62.2178 40.4013 41 55 46
0.288537 -62.2178 40.4277 43 58 48
0.28858 -62.2178 40.454 45 60 51
0.288623 -62.2178 40.4804 47 63 53
0.288665 -62.2178 40.5067 49 65 55
0.292317 -62.9955 41.0398 51 67 57
0.29236 -62.9955 41.0664 53 69 59
0.292403 -62.9955 41.0931 55 71 60
0.292446 -62.9955 41.1198 56 73 62
0.29249 -62.9955 41.1465 58 75 64
0.292533 -62.9955 41.1732 59 76 65
0.303975 -65.4499 42.805 60 77 66
0.30402 -65.4499 42.8328 62 79 67
0.339319 -73.0383 47.8298 63 80 68
0.339369 -73.0383 47.8608 63 80 69
0.291183 -62.2178 42.0616 38 48 42
0.291225 -62.2178 42.0879 36 45 40
0.280866 -59.9957 40.6102 34 43 38
0.280907 -59.9957 40.6356 32 40 36
0.280948 -59.9957 40.661 30 38 34
0.280989 -59.9957 40.6864 28 36 32
0.28103 -59.9957 40.7118 26 33 30
0.281071 -59.9957 40.7372 25 31 28
0.281112 -59.9957 40.7626 23 29 27
0.281154 -59.9957 40.7881 21 27 25
0.281195 -59.9957 40.8135 19 25 23
0.281236 -59.9957 40.8389 18 24 22
0.281277 -59.9957 40.8643 17 22 21
0.281318 -59.9957 40.8897 16 21 20
0.26857 -57.2687 39.0553 15 21 19
0.26861 -57.2687 39.0796 14 20 19
0.268649 -57.2687 39.1039 14 20 18
0.268688 -57.2687 39.1281 14 20 18
0.281524 -59.9957 41.0168 14 19 18
0.281565 -59.9957 41.0422 14 19 18
0.281606 -59.9957 41.0676 14 19 18
0.281647 -59.9957 41.093 14 19 17
0.281688 -59.9957 41.1184 14 19 17
0.28173 -59.9957 41.1438 14 19 18
0.281771 -59.9957 41.1692 14 20 18
0.281812 -59.9957 41.1946 14 20 18
0.281853 -59.9957 41.2201 15 21 18
0.281894 -59.9957 41.2455 15 21 19
0.281935 -59.9957 41.2709 16 22 19
0.281976 -59.9957 41.2963 16 23 20
0.282018 -59.9957 41.3217 17 23 20
0.282059 -59.9957 41.3471 17 24 21
0.2821 -59.9957 41.3725 18 25 22
0.282141 -59.9957 41.3979 19 26 22
0.282182 -59.9957 41.4233 19 27 23
0.282223 -59.9957 41.4488 20 28 23
0.282264 -59.9957 41.4742 21 28 24
0.282306 -59.9957 41.4996 21 29 25
0.282347 -59.9957 41.525 22 30 25
0.282388 -59.9957 41.5504 23 31 26
0.282429 -59.9957 41.5758 23 32 27
0.28247 -59.9957 41.6012 24 32 27
0.296637 -62.9955 43.708 24 33 28
0.29668 -62.9955 43.7347 25 34 28
0.370134 -74.1037 45.7708 57 63 50
0.370185 -74.1037 45.8022 57 63 50
0.331355 -66.3033 41.0651 55 59 46
0.3314 -66.3033 41.0932 54 57 45
0.331446 -66.3033 41.1213 52 54 43
0.331491 -66.3033 41.1494 50 52 40
0.331537 -66.3033 41.1775 48 49 38
0.331582 -66.3033 41.2056 46 46 36
0.331628 -66.3033 41.2337 43 43 34
0.331673 -66.3033 41.2617 41 41 32
0.331719 -66.3033 41.2898 38 38 30
0.331764 -66.3033 41.3179 36 36 28
0.331809 -66.3033 41.346 34 33 26
0.331855 -66.3033 41.3741 31 31 24
0.315305 -62.9881 39.3321 29 29 23
0.315349 -62.9881 39.3587 27 28 22
0.315392 -62.9881 39.3854 25 26 21
0.315435 -62.9881 39.4121 23 25 21
0.315478 -62.9881 39.4388 22 25 21
0.315521 -62.9881 39.4655 21 24 21
0.315565 -62.9881 39.4922 21 24 21
0.315608 -62.9881 39.5188 20 25 21
0.315651 -62.9881 39.5455 20 25 22
0.315694 -62.9881 39.5722 20 25 22
0.315737 -62.9881 39.5989 20 26 23
0.315781 -62.9881 39.6256 20 26 24
0.315824 -62.9881 39.6523 21 27 24
0.315867 -62.9881 39.6789 21 28 25
0.31591 -62.9881 39.7056 21 29 26
0.315953 -62.9881 39.7323 22 29 27
0.315997 -62.9881 39.759 22 30 28
0.31604 -62.9881 39.7857 23 31 28
0.316083 -62.9881 39.8123 24 32 29
0.316126 -62.9881 39.839 24 33 30
0.316169 -62.9881 39.8657 25 34 31
0.316213 -62.9881 39.8924 26 35 32
0.316256 -62.9881 39.9191 26 35 32
0.316299 -62.9881 39.9458 27 36 33
0.316342 -62.9881 39.9724 27 37 33
0.316385 -62.9881 39.9991 28 37 34
0.316429 -62.9881 40.0258 28 38 34
0.316472 -62.9881 40.0525 28 38 34
0.316515 -62.9881 40.0792 28 38 34
0.316558 -62.9881 40.1058 28 38 34
0.316601 -62.9881 40.1325 28 38 34
0.316645 -62.9881 40.1592 28 37 34
0.301607 -59.9887 38.2723 28 37 33
0.301649 -59.9887 38.2977 27 37 33
0.30169 -59.9887 38.3231 27 36 33
0.301731 -59.9887 38.3485 27 36 32
0.301772 -59.9887 38.3739 26 35 32
0.301813 -59.9887 38.3993 26 35 31
0.301854 -59.9887 38.4247 26 34 30
0.301895 -59.9887 38.4502 25 33 30
0.301937 -59.9887 38.4756 25 33 29
0.301978 -59.9887 38.501 24 33 29
0.302019 -59.9887 38.5264 24 33 29
0.30206 -59.9887 38.5518 24 33 28
0.302101 -59.9887 38.5772 24 33 28
0.302142 -59.9887 38.6026 24 33 29
0.302183 -59.9887 38.628 25 34 29
0.302225 -59.9887 38.6535 25 34 29
0.302266 -59.9887 38.6789 26 35 30
0.302307 -59.9887 38.7043 26 36 31
0.302348 -59.9887 38.7297 27 38 32
0.302389 -59.9887 38.7551 29 39 33
0.30243 -59.9887 38.7805 30 41 34
0.302471 -59.9887 38.8059 31 43 36
0.302513 -59.9887 38.8313 33 45 37
0.302554 -59.9887 38.8567 35 47 39
0.306241 -60.7114 39.3506 36 49 41
0.306282 -60.7114 39.3763 38 51 43
0.306324 -60.7114 39.4021 40 53 45
0.306366 -60.7114 39.4278 42 56 47
0.306407 -60.7114 39.4535 44 58 49
0.306449 -60.7114 39.4792 45 61 51
0.30649 -60.7114 39.5049 47 63 53
0.306532 -60.7114 39.5306 49 65 55
0.31807 -62.9881 41.0397 51 67 57
0.318113 -62.9881 41.0664 53 69 58
0.318157 -62.9881 41.0931 55 71 60
0.3182 -62.9881 41.1198 56 73 62
0.318243 -62.9881 41.1464 58 74 63
0.318286 -62.9881 41.1731 59 76 65
0.322359 -63.7854 41.7213 60 77 66
0.322403 -63.7854 41.7483 61 78 67
0.358778 -70.9725 46.4825 62 79 68
0.358827 -70.9725 46.5125 63 80 69
0.308989 -60.7114 41.048 38 48 41
0.30903 -60.7114 41.0737 36 45 39
0.305393 -59.9887 40.6101 34 43 38
0.305434 -59.9887 40.6356 32 40 36
0.305475 -59.9887 40.661 30 38 34
0.305516 -59.9887 40.6864 28 36 32
0.305557 -59.9887 40.7118 26 33 30
0.305598 -59.9887 40.7372 24 31 28
0.305639 -59.9887 40.7626 23 29 26
0.305681 -59.9887 40.788 21 27 25
0.305722 -59.9887 40.8134 19 25 23
0.305763 -59.9887 40.8388 18 24 22
0.305804 -59.9887 40.8643 17 22 21
0.305845 -59.9887 40.8897 16 21 20
0.291982 -57.2619 39.0553 15 21 19
0.292022 -57.2619 39.0796 14 20 19
0.292061 -57.2619 39.1038 14 20 18
0.2921 -57.2619 39.1281 14 19 18
0.306051 -59.9887 41.0167 14 19 18
0.306092 -59.9887 41.0421 14 19 18
0.306133 -59.9887 41.0675 14 19 18
0.306174 -59.9887 41.093 14 19 17
0.306215 -59.9887 41.1184 14 19 17
0.306257 -59.9887 41.1438 14 19 17
0.306298 -59.9887 41.1692 14 20 18
0.306339 -59.9887 41.1946 14 20 18
0.30638 -59.9887 41.22 15 21 18
0.306421 -59.9887 41.2454 15 21 19
0.306462 -59.9887 41.2708 15 22 19
0.306503 -59.9887 41.2963 16 23 20
0.306545 -59.9887 41.3217 17 23 20
0.306586 -59.9887 41.3471 17 24 21
0.306627 -59.9887 41.3725 18 25 22
0.306668 -59.9887 41.3979 19 26 22
0.306709 -59.9887 41.4233 19 27 23
0.30675 -59.9887 41.4487 20 28 24
0.306791 -59.9887 41.4741 21 29 24
0.306833 -59.9887 41.4995 22 30 25
0.306874 -59.9887 41.525 22 31 26
0.306915 -59.9887 41.5504 23 32 26
0.306956 -59.9887 41.5758 24 32 27
0.306997 -59.9887 41.6012 24 33 28
0.32239 -62.9881 43.7079 25 34 28
0.322433 -62.9881 43.7346 26 35 29
0.36619 -68.0873 40.9634 25 29 25
0.366237 -68.0873 40.9923 26 29 25
0.394629 -73.0211 45.1074 57 63 50
0.394679 -73.0211 45.1383 57 63 50
0.358464 -66.2955 41.0651 55 59 47
0.358509 -66.2955 41.0932 53 57 45
0.358554 -66.2955 41.1213 51 54 43
0.3586 -66.2955 41.1494 49 51 40
0.358645 -66.2955 41.1774 47 48 38
0.358691 -66.2955 41.2055 44 46 36
0.358736 -66.2955 41.2336 42 43 33
0.358782 -66.2955 41.2617 40 40 31
0.358827 -66.2955 41.2898 37 37 29
0.358873 -66.2955 41.3179 35 35 27
0.358918 -66.2955 41.346 32 32 25
0.358964 -66.2955 41.374 30 30 24
0.341059 -62.9807 39.332 28 28 22
0.341102 -62.9807 39.3587 26 27 22
0.341145 -62.9807 39.3854 24 25 21
0.341188 -62.9807 39.4121 22 25 20
0.341232 -62.9807 39.4388 21 24 20
0.341275 -62.9807 39.4654 20 24 20
0.341318 -62.9807 39.4921 20 24 21
0.341361 -62.9807 39.5188 20 24 21
0.341404 -62.9807 39.5455 19 24 21
0.341448 -62.9807 39.5722 20 25 22
0.341491 -62.9807 39.5988 20 25 23
0.341534 -62.9807 39.6255 20 26 23
0.341577 -62.9807 39.6522 20 27 24
0.34162 -62.9807 39.6789 21 28 25
0.341664 -62.9807 39.7056 21 28 26
0.341707 -62.9807 39.7323 22 29 27
0.34175 -62.9807 39.7589 22 30 27
0.341793 -62.9807 39.7856 23 31 28
0.341836 -62.9807 39.8123 24 32 29
0.34188 -62.9807 39.839 24 33 30
0.341923 -62.9807 39.8657 25 34 31
0.341966 -62.9807 39.8923 25 34 31
0.342009 -62.9807 39.919 26 35 32
0.342052 -62.9807 39.9457 26 36 33
0.342096 -62.9807 39.9724 27 36 33
0.342139 -62.9807 39.9991 27 37 34
0.342182 -62.9807 40.0258 28 37 34
0.342225 -62.9807 40.0524 28 37 34
0.342268 -62.9807 40.0791 28 37 34
0.342312 -62.9807 40.1058 28 37 34
0.342355 -62.9807 40.1325 28 37 34
0.342398 -62.9807 40.1592 27 37 33
0.326134 -59.9817 38.2722 27 36 33
0.326176 -59.9817 38.2977 27 36 33
0.326217 -59.9817 38.3231 27 36 32
0.326258 -59.9817 38.3485 26 35 32
0.326299 -59.9817 38.3739 26 35 31
0.32634 -59.9817 38.3993 26 34 31
0.326381 -59.9817 38.4247 25 33 30
0.326422 -59.9817 38.4501 25 33 29
0.326464 -59.9817 38.4755 24 33 29
0.326505 -59.9817 38.5009 24 32 29
0.326546 -59.9817 38.5264 24 32 28
0.326587 -59.9817 38.5518 24 32 28
0.326628 -59.9817 38.5772 24 33 28
0.326669 -59.9817 38.6026 24 33 28
0.32671 -59.9817 38.628 25 34 29
0.326752 -59.9817 38.6534 25 34 29
0.326793 -59.9817 38.6788 26 35 30
0.326834 -59.9817 38.7042 27 37 31
0.326875 -59.9817 38.7296 28 38 32
0.326916 -59.9817 38.7551 29 40 33
0.326957 -59.9817 38.7805 30 41 35
0.326998 -59.9817 38.8059 32 43 36
0.32704 -59.9817 38.8313 33 45 38
0.327081 -59.9817 38.8567 35 47 39
0.327122 -59.9817 38.8821 37 49 41
0.327163 -59.9817 38.9075 38 52 43
0.327204 -59.9817 38.9329 40 54 45
0.327245 -59.9817 38.9584 42 56 47
0.327286 -59.9817 38.9838 44 58 49
0.327328 -59.9817 39.0092 45 60 51
0.327369 -59.9817 39.0346 47 63 52
0.32741 -59.9817 39.06 49 65 54
0.339579 -62.2032 40.533 51 67 56
0.339621 -62.2032 40.5594 53 69 58
0.339664 -62.2032 40.5857 54 70 60
0.339707 -62.2032 40.6121 56 72 61
0.339749 -62.2032 40.6384 57 74 62
0.339792 -62.2032 40.6648 58 75 64
0.344083 -62.9807 41.1998 59 76 65
0.344126 -62.9807 41.2265 60 77 66
0.38241 -69.9786 45.8368 61 78 67
0.382458 -69.9786 45.8665 62 79 67
0.399137 -73.0211 47.8916 63 79 68
0.399187 -73.0211 47.9225 63 79 68
0.341968 -62.2032 42.0088 41 52 45
0.342011 -62.2032 42.0351 40 50 43
0.329837 -59.9817 40.5593 38 47 41
0.329878 -59.9817 40.5847 36 45 39
0.32992 -59.9817 40.6101 34 42 37
0.329961 -59.9817 40.6355 32 40 35
0.330002 -59.9817 40.6609 30 38 34
0.330043 -59.9817 40.6863 28 36 32
0.330084 -59.9817 40.7117 26 33 30
0.330125 -59.9817 40.7372 24 31 28
0.330166 -59.9817 40.7626 23 29 26
0.330208 -59.9817 40.788 21 27 25
0.330249 -59.9817 40.8134 19 25 23
0.33029 -59.9817 40.8388 18 24 22
0.330331 -59.9817 40.8642 17 22 21
0.330372 -59.9817 40.8896 16 21 20
0.315395 -57.2552 39.0553 15 21 19
0.315434 -57.2552 39.0795 14 20 19
0.315473 -57.2552 39.1038 14 20 18
0.315512 -57.2552 39.128 14 19 18
0.330578 -59.9817 41.0167 14 19 18
0.330619 -59.9817 41.0421 14 19 18
0.33066 -59.9817 41.0675 14 19 18
0.330701 -59.9817 41.0929 13 19 17
0.330742 -59.9817 41.1183 13 19 17
0.330784 -59.9817 41.1437 14 19 17
0.330825 -59.9817 41.1692 14 20 18
0.330866 -59.9817 41.1946 14 20 18
0.330907 -59.9817 41.22 14 20 18
0.330948 -59.9817 41.2454 15 21 19
0.330989 -59.9817 41.2708 15 22 19
0.33103 -59.9817 41.2962 16 22 20
0.331072 -59.9817 41.3216 17 23 20
0.331113 -59.9817 41.347 17 24 21
0.331154 -59.9817 41.3724 18 25 22
0.331195 -59.9817 41.3979 19 26 22
0.331236 -59.9817 41.4233 19 27 23
0.331277 -59.9817 41.4487 20 28 24
0.331318 -59.9817 41.4741 21 29 25
0.33136 -59.9817 41.4995 22 30 25
0.331401 -59.9817 41.5249 23 31 26
0.331442 -59.9817 41.5503 24 32 27
0.331483 -59.9817 41.5757 24 33 28
0.331524 -59.9817 41.6012 25 34 29
0.35255 -63.778 44.2612 26 35 29
0.352594 -63.778 44.2882 27 36 30
0.412531 -70.9559 43.8367 57 63 51
0.412579 -70.9559 43.8668 57 62 50
0.385572 -66.2877 41.065 54 58 47
0.385618 -66.2877 41.0931 52 56 45
0.385663 -66.2877 41.1212 51 54 42
0.385709 -66.2877 41.1493 48 51 40
0.385754 -66.2877 41.1774 46 48 38
0.3858 -66.2877 41.2055 43 45 36
0.385845 -66.2877 41.2336 41 42 33
0.385891 -66.2877 41.2617 38 39 31
0.385936 -66.2877 41.2897 36 37 29
0.385982 -66.2877 41.3178 33 34 27
0.386027 -66.2877 41.3459 31 32 25
0.386072 -66.2877 41.374 29 29 23
0.366812 -62.9734 39.332 27 27 22
0.366855 -62.9734 39.3587 25 26 21
0.366898 -62.9734 39.3853 23 25 20
0.366942 -62.9734 39.412 21 24 20
0.366985 -62.9734 39.4387 20 23 20
0.367028 -62.9734 39.4654 19 23 20
0.367071 -62.9734 39.4921 19 23 20
0.367114 -62.9734 39.5188 19 23 21
0.367158 -62.9734 39.5454 19 24 21
0.367201 -62.9734 39.5721 19 24 22
0.367244 -62.9734 39.5988 19 25 22
0.367287 -62.9734 39.6255 20 26 23
0.36733 -62.9734 39.6522 20 27 24
0.367374 -62.9734 39.6788 21 27 25
0.367417 -62.9734 39.7055 21 28 26
0.36746 -62.9734 39.7322 22 29 26
0.367503 -62.9734 39.7589 22 30 27
0.367546 -62.9734 39.7856 23 31 28
0.36759 -62.9734 39.8123 23 32 29
0.367633 -62.9734 39.8389 24 33 30
0.367676 -62.9734 39.8656 25 33 31
0.367719 -62.9734 39.8923 25 34 31
0.367762 -62.9734 39.919 26 35 32
0.367806 -62.9734 39.9457 26 35 32
0.367849 -62.9734 39.9724 27 36 33
0.367892 -62.9734 39.999 27 36 33
0.367935 -62.9734 40.0257 27 37 33
0.367978 -62.9734 40.0524 27 37 34
0.368022 -62.9734 40.0791 27 37 33
0.368065 -62.9734 40.1058 27 37 33
0.368108 -62.9734 40.1324 27 36 33
0.368151 -62.9734 40.1591 27 36 33
0.350661 -59.9746 38.2722 27 36 32
0.350703 -59.9746 38.2976 27 35 32
0.350744 -59.9746 38.323 26 35 32
0.350785 -59.9746 38.3484 26 34 31
0.350826 -59.9746 38.3738 25 34 31
0.350867 -59.9746 38.3993 25 33 30
0.350908 -59.9746 38.4247 25 33 30
0.350949 -59.9746 38.4501 24 32 29
0.350991 -59.9746 38.4755 24 32 29
0.351032 -59.9746 38.5009 24 32 28
0.351073 -59.9746 38.5263 24 32 28
0.351114 -59.9746 38.5517 24 32 28
0.351155 -59.9746 38.5771 24 33 28
0.351196 -59.9746 38.6026 24 33 28
0.351237 -59.9746 38.628 25 34 29
0.351279 -59.9746 38.6534 25 35 29
0.35132 -59.9746 38.6788 26 36 30
0.351361 -59.9746 38.7042 27 37 31
0.351402 -59.9746 38.7296 28 38 32
0.351443 -59.9746 38.755 29 40 34
0.351484 -59.9746 38.7804 31 42 35
0.351525 -59.9746 38.8058 32 44 36
0.351567 -59.9746 38.8313 34 46 38
0.351608 -59.9746 38.8567 35 48 40
0.351649 -59.9746 38.8821 37 50 41
0.35169 -59.9746 38.9075 38 52 43
0.351731 -59.9746 38.9329 40 54 45
0.351772 -59.9746 38.9583 42 56 46
0.351813 -59.9746 38.9837 43 58 48
0.351855 -59.9746 39.0091 45 60 50
0.351896 -59.9746 39.0345 47 62 52
0.351937 -59.9746 39.06 49 64 54
0.356219 -60.6972 39.5563 50 66 55
0.35626 -60.6972 39.582 52 68 57
0.356302 -60.6972 39.6077 54 70 59
0.356344 -60.6972 39.6334 55 71 60
0.356385 -60.6972 39.6591 56 72 61
0.356427 -60.6972 39.6849 57 74 62
0.369836 -62.9734 41.1997 58 75 63
0.369879 -62.9734 41.2264 59 76 64
0.411025 -69.9704 45.8368 60 76 65
0.411073 -69.9704 45.8664 61 77 66
0.416911 -70.9559 46.5425 61 78 66
0.41696 -70.9559 46.5726 62 78 66
0.35855 -60.6972 40.9965 41 52 45
0.358592 -60.6972 41.0222 39 49 43
0.354364 -59.9746 40.5592 37 47 41
0.354405 -59.9746 40.5846 35 45 39
0.354447 -59.9746 40.6101 34 42 37
0.354488 -59.9746 40.6355 32 40 35
0.354529 -59.9746 40.6609 30 38 33
0.35457 -59.9746 40.6863 28 35 32
0.354611 -59.9746 40.7117 26 33 30
0.354652 -59.9746 40.7371 24 31 28
0.354693 -59.9746 40.7625 23 29 26
0.354735 -59.9746 40.7879 21 27 25
0.354776 -59.9746 40.8134 19 25 23
0.354817 -59.9746 40.8388 18 24 22
0.354858 -59.9746 40.8642 17 22 21
0.354899 -59.9746 40.8896 16 21 20
0.338807 -57.2485 39.0552 15 21 19
0.338846 -57.2485 39.0795 14 20 19
0.338885 -57.2485 39.1037 14 20 18
0.338924 -57.2485 39.128 14 19 18
0.355105 -59.9746 41.0166 14 19 18
0.355146 -59.9746 41.0421 14 19 18
0.355187 -59.9746 41.0675 13 19 17
0.355228 -59.9746 41.0929 13 19 17
0.355269 -59.9746 41.1183 13 19 17
0.355311 -59.9746 41.1437 13 19 17
0.355352 -59.9746 41.1691 14 19 18
0.355393 -59.9746 41.1945 14 20 18
0.355434 -59.9746 41.2199 14 20 18
0.355475 -59.9746 41.2453 15 21 19
0.355516 -59.9746 41.2708 15 22 19
0.355557 -59.9746 41.2962 16 22 20
0.355599 -59.9746 41.3216 16 23 20
0.35564 -59.9746 41.347 17 24 21
0.355681 -59.9746 41.3724 18 25 22
0.355722 -59.9746 41.3978 19 26 23
0.355763 -59.9746 41.4232 19 27 23
0.355804 -59.9746 41.4486 20 28 24
0.355845 -59.9746 41.4741 21 30 25
0.355887 -59.9746 41.4995 22 31 26
0.355928 -59.9746 41.5249 23 32 27
0.355969 -59.9746 41.5503 24 33 28
0.35601 -59.9746 41.5757 25 34 29
0.356051 -59.9746 41.6011 26 35 29
0.388464 -65.4269 45.4108 27 36 30
0.388509 -65.4269 45.4385 28 37 31
0.362434 -59.9676 30.3946 26 22 19
0.362475 -59.9676 30.42 25 21 19
0.362516 -59.9676 30.4454 25 21 19
0.362557 -59.9676 30.4708 24 21 19
0.421966 -68.0713 41.021 26 29 25
0.422013 -68.0713 41.0499 26 29 25
0.460927 -74.0776 45.7078 56 63 51
0.460978 -74.0776 45.7392 56 63 51
0.435416 -69.9622 43.2278 56 63 50
0.435464 -69.9622 43.2575 56 62 50
0.412772 -66.28 41.1212 50 53 42
0.412817 -66.28 41.1493 47 50 40
0.412863 -66.28 41.1774 45 47 38
0.412908 -66.28 41.2054 42 44 35
0.412954 -66.28 41.2335 40 41 33
0.412999 -66.28 41.2616 37 39 31
0.413045 -66.28 41.2897 35 36 28
0.41309 -66.28 41.3178 32 33 26
0.40777 -65.4192 40.8089 30 31 25
0.407815 -65.4192 40.8366 28 29 23
0.392565 -62.966 39.3319 25 27 22
0.392609 -62.966 39.3586 23 25 21
0.392652 -62.966 39.3853 22 24 20
0.392695 -62.966 39.412 20 23 20
0.392738 -62.966 39.4387 19 23 20
0.392781 -62.966 39.4654 19 23 20
0.392825 -62.966 39.492 18 23 20
0.392868 -62.966 39.5187 18 23 20
0.392911 -62.966 39.5454 18 24 21
0.392954 -62.966 39.5721 19 24 22
0.392997 -62.966 39.5988 19 25 22
0.393041 -62.966 39.6254 19 26 23
0.393084 -62.966 39.6521 20 26 24
0.393127 -62.966 39.6788 20 27 25
0.39317 -62.966 39.7055 21 28 26
0.393213 -62.966 39.7322 21 29 26
0.393257 -62.966 39.7589 22 30 27
0.3933 -62.966 39.7855 23 31 28
0.393343 -62.966 39.8122 23 32 29
0.393386 -62.966 39.8389 24 32 30
0.393429 -62.966 39.8656 24 33 30
0.393473 -62.966 39.8923 25 34 31
0.393516 -62.966 39.9189 26 35 32
0.393559 -62.966 39.9456 26 35 32
0.393602 -62.966 39.9723 26 36 33
0.393645 -62.966 39.999 27 36 33
0.393689 -62.966 40.0257 27 36 33
0.393732 -62.966 40.0524 27 36 33
0.393775 -62.966 40.079 27 36 33
0.393818 -62.966 40.1057 27 36 33
0.388999 -62.1886 39.6369 27 36 33
0.389042 -62.1886 39.6633 27 36 32
0.375188 -59.9676 38.2722 26 35 32
0.37523 -59.9676 38.2976 26 35 32
0.375271 -59.9676 38.323 26 35 31
0.375312 -59.9676 38.3484 25 34 31
0.375353 -59.9676 38.3738 25 33 30
0.375394 -59.9676 38.3992 25 33 30
0.375435 -59.9676 38.4246 24 32 29
0.375476 -59.9676 38.45 24 32 29
0.375518 -59.9676 38.4755 24 32 28
0.375559 -59.9676 38.5009 24 32 28
0.3756 -59.9676 38.5263 24 32 28
0.375641 -59.9676 38.5517 24 32 28
0.375682 -59.9676 38.5771 24 33 28
0.375723 -59.9676 38.6025 24 33 29
0.375764 -59.9676 38.6279 25 34 29
0.375806 -59.9676 38.6533 25 35 30
0.375847 -59.9676 38.6787 26 36 30
0.375888 -59.9676 38.7042 27 37 31
0.375929 -59.9676 38.7296 28 39 33
0.37597 -59.9676 38.755 30 40 34
0.376011 -59.9676 38.7804 31 42 35
0.376052 -59.9676 38.8058 32 44 37
0.376094 -59.9676 38.8312 34 46 38
0.376135 -59.9676 38.8566 35 48 40
0.376176 -59.9676 38.882 37 50 41
0.376217 -59.9676 38.9074 39 52 43
0.376258 -59.9676 38.9329 40 54 45
0.376299 -59.9676 38.9583 42 56 46
0.37634 -59.9676 38.9837 43 58 48
0.376382 -59.9676 39.0091 45 60 50
0.376423 -59.9676 39.0345 47 62 51
0.376464 -59.9676 39.0599 49 64 53
0.376505 -59.9676 39.0853 50 66 55
0.376546 -59.9676 39.1107 52 67 56
0.376587 -59.9676 39.1362 53 69 58
0.376628 -59.9676 39.1616 54 70 59
0.37667 -59.9676 39.187 55 71 60
0.376711 -59.9676 39.2124 57 73 61
0.390706 -62.1886 40.6911 58 74 62
0.390748 -62.1886 40.7174 58 74 63
0.433617 -69.0038 45.2088 59 75 64
0.433665 -69.0038 45.2381 60 76 64
0.439736 -69.9622 45.896 60 76 65
0.439784 -69.9622 45.9257 60 76 65
0.378727 -59.9676 40.4576 44 55 47
0.378768 -59.9676 40.483 42 53 46
0.378809 -59.9676 40.5084 41 51 44
0.37885 -59.9676 40.5338 39 49 42
0.378891 -59.9676 40.5592 37 47 40
0.378932 -59.9676 40.5846 35 44 39
0.378974 -59.9676 40.61 33 42 37
0.379015 -59.9676 40.6354 31 40 35
0.379056 -59.9676 40.6608 30 38 33
0.379097 -59.9676 40.6863 28 35 32
0.379138 -59.9676 40.7117 26 33 30
0.379179 -59.9676 40.7371 24 31 28
0.37922 -59.9676 40.7625 23 29 26
0.379262 -59.9676 40.7879 21 27 25
0.379303 -59.9676 40.8133 19 25 23
0.379344 -59.9676 40.8387 18 24 22
0.379385 -59.9676 40.8641 17 22 21
0.379426 -59.9676 40.8895 16 21 20
0.366382 -57.8997 39.5041 15 21 19
0.366422 -57.8997 39.5286 14 20 19
0.366462 -57.8997 39.5532 14 20 18
0.366501 -57.8997 39.5777 14 19 18
0.379632 -59.9676 41.0166 14 19 18
0.379673 -59.9676 41.042 14 19 18
0.379714 -59.9676 41.0674 13 19 17
0.379755 -59.9676 41.0928 13 19 17
0.379796 -59.9676 41.1183 13 19 17
0.379838 -59.9676 41.1437 13 19 17
0.379879 -59.9676 41.1691 14 19 18
0.37992 -59.9676 41.1945 14 20 18
0.379961 -59.9676 41.2199 14 20 18
0.380002 -59.9676 41.2453 15 21 19
0.380043 -59.9676 41.2707 15 22 19
0.380084 -59.9676 41.2961 16 22 20
0.380126 -59.9676 41.3215 16 23 20
0.380167 -59.9676 41.347 17 24 21
0.380208 -59.9676 41.3724 18 25 22
0.380249 -59.9676 41.3978 19 26 23
0.38029 -59.9676 41.4232 20 28 24
0.380331 -59.9676 41.4486 21 29 25
0.380372 -59.9676 41.474 22 30 25
0.380414 -59.9676 41.4994 23 31 26
0.380455 -59.9676 41.5248 24 33 27
0.380496 -59.9676 41.5502 25 34 28
0.380537 -59.9676 41.5757 26 35 29
0.380578 -59.9676 41.6011 27 36 30
0.420684 -66.28 46.0082 28 38 31
0.42073 -66.28 46.0363 29 39 32
0.491225 -74.0689 45.7078 56 63 50
0.491276 -74.0689 45.7392 56 63 50
0.464031 -69.954 43.2278 56 62 50
0.464079 -69.954 43.2574 55 61 49
0.439881 -66.2722 41.1211 48 52 42
0.439926 -66.2722 41.1492 46 49 39
0.439972 -66.2722 41.1773 44 46 37
0.440017 -66.2722 41.2054 41 43 35
0.440063 -66.2722 41.2335 38 40 32
0.440108 -66.2722 41.2616 36 38 30
0.440154 -66.2722 41.2897 33 35 28
0.440199 -66.2722 41.3177 31 32 26
0.423526 -63.7555 39.7757 29 30 24
0.42357 -63.7555 39.8028 26 28 23
0.418319 -62.9586 39.3319 24 26 21
0.418362 -62.9586 39.3586 22 25 20
0.418405 -62.9586 39.3853 21 23 20
0.418448 -62.9586 39.4119 20 23 19
0.418492 -62.9586 39.4386 19 22 19
0.418535 -62.9586 39.4653 18 22 19
0.418578 -62.9586 39.492 18 22 20
0.418621 -62.9586 39.5187 18 23 20
0.418664 -62.9586 39.5454 18 23 21
0.418708 -62.9586 39.572 18 24 21
0.418751 -62.9586 39.5987 19 25 22
0.418794 -62.9586 39.6254 19 25 23
0.418837 -62.9586 39.6521 20 26 24
0.41888 -62.9586 39.6788 20 27 25
0.418924 -62.9586 39.7054 21 28 25
0.418967 -62.9586 39.7321 21 29 26
0.41901 -62.9586 39.7588 22 30 27
0.419053 -62.9586 39.7855 23 31 28
0.419096 -62.9586 39.8122 23 32 29
0.41914 -62.9586 39.8389 24 32 30
0.419183 -62.9586 39.8655 24 33 30
0.419226 -62.9586 39.8922 25 34 31
0.419269 -62.9586 39.9189 25 34 32
0.419312 -62.9586 39.9456 26 35 32
0.419356 -62.9586 39.9723 26 35 33
0.419399 -62.9586 39.999 26 36 33
0.419442 -62.9586 40.0256 27 36 33
0.419485 -62.9586 40.0523 27 36 33
0.419528 -62.9586 40.079 27 36 33
0.419572 -62.9586 40.1057 26 36 33
0.404448 -60.683 38.6818 26 35 32
0.40449 -60.683 38.7075 26 35 32
0.399715 -59.9606 38.2721 26 35 32
0.399756 -59.9606 38.2975 26 34 31
0.399798 -59.9606 38.3229 25 34 31
0.399839 -59.9606 38.3484 25 34 30
0.39988 -59.9606 38.3738 25 33 30
0.399921 -59.9606 38.3992 24 33 29
0.399962 -59.9606 38.4246 24 32 29
0.400003 -59.9606 38.45 24 32 29
0.400044 -59.9606 38.4754 24 32 28
0.400086 -59.9606 38.5008 24 32 28
0.400127 -59.9606 38.5262 24 32 28
0.400168 -59.9606 38.5516 24 32 28
0.400209 -59.9606 38.5771 24 33 28
0.40025 -59.9606 38.6025 25 33 29
0.400291 -59.9606 38.6279 25 34 29
0.400332 -59.9606 38.6533 26 35 30
0.400374 -59.9606 38.6787 27 36 31
0.400415 -59.9606 38.7041 28 38 32
0.400456 -59.9606 38.7295 29 39 33
0.400497 -59.9606 38.7549 30 41 34
0.400538 -59.9606 38.7804 31 43 36
0.400579 -59.9606 38.8058 33 45 37
0.40062 -59.9606 38.8312 34 46 39
0.400662 -59.9606 38.8566 36 48 40
0.400703 -59.9606 38.882 37 50 42
0.400744 -59.9606 38.9074 39 52 43
0.400785 -59.9606 38.9328 40 54 45
0.400826 -59.9606 38.9582 42 56 46
0.400867 -59.9606 38.9836 44 58 48
0.400908 -59.9606 39.0091 45 60 50
0.40095 -59.9606 39.0345 47 62 51
0.400991 -59.9606 39.0599 48 64 53
0.401032 -59.9606 39.0853 50 65 54
0.401073 -59.9606 39.1107 51 67 56
0.401114 -59.9606 39.1361 53 68 57
0.401155 -59.9606 39.1615 54 69 58
0.401196 -59.9606 39.1869 55 71 59
0.401238 -59.9606 39.2123 56 72 61
0.406113 -60.683 39.7105 57 73 61
0.406155 -60.683 39.7362 58 73 62
0.449524 -67.1558 44.0032 58 74 63
0.44957 -67.1558 44.0317 59 75 63
0.468351 -69.954 45.896 59 75 64
0.468399 -69.954 45.9256 59 75 64
0.403254 -59.9606 40.4575 43 54 47
0.403295 -59.9606 40.4829 42 53 45
0.403336 -59.9606 40.5083 40 51 43
0.403377 -59.9606 40.5337 38 48 42
0.403418 -59.9606 40.5592 37 46 40
0.403459 -59.9606 40.5846 35 44 38
0.403501 -59.9606 40.61 33 42 37
0.403542 -59.9606 40.6354 31 39 35
0.403583 -59.9606 40.6608 29 37 33
0.403624 -59.9606 40.6862 28 35 31
0.403665 -59.9606 40.7116 26 33 30
0.403706 -59.9606 40.737 24 31 28
0.403747 -59.9606 40.7625 22 29 26
0.403789 -59.9606 40.7879 21 27 25
0.40383 -59.9606 40.8133 19 25 23
0.403871 -59.9606 40.8387 18 24 22
0.403912 -59.9606 40.8641 17 23 21
0.403953 -59.9606 40.8895 16 21 20
0.399241 -59.2551 40.4336 15 21 19
0.399282 -59.2551 40.4587 14 20 19
0.399323 -59.2551 40.4838 14 20 18
0.399363 -59.2551 40.5089 14 20 18
0.404159 -59.9606 41.0166 14 19 18
0.4042 -59.9606 41.042 14 19 18
0.404241 -59.9606 41.0674 13 19 17
0.404282 -59.9606 41.0928 13 19 17
0.404323 -59.9606 41.1182 13 19 17
0.404365 -59.9606 41.1436 13 19 17
0.404406 -59.9606 41.169 13 19 18
0.404447 -59.9606 41.1944 14 20 18
0.404488 -59.9606 41.2199 14 20 18
0.404529 -59.9606 41.2453 15 21 19
0.40457 -59.9606 41.2707 15 22 19
0.404611 -59.9606 41.2961 16 22 20
0.404653 -59.9606 41.3215 16 23 20
0.404694 -59.9606 41.3469 17 24 21
0.404735 -59.9606 41.3723 18 25 22
0.404776 -59.9606 41.3977 19 27 23
0.404817 -59.9606 41.4232 20 28 24
0.404858 -59.9606 41.4486 21 29 25
0.404899 -59.9606 41.474 22 31 26
0.404941 -59.9606 41.4994 23 32 27
0.404982 -59.9606 41.5248 24 33 28
0.405023 -59.9606 41.5502 25 35 29
0.405064 -59.9606 41.5756 27 36 30
0.405105 -59.9606 41.601 28 38 31
0.447793 -66.2722 46.0082 29 39 32
0.447839 -66.2722 46.0363 30 40 34
0.521421 -74.0602 45.645 54 61 49
0.521472 -74.0602 45.6764 54 62 49
0.513965 -72.9869 45.0453 55 62 50
0.514015 -72.9869 45.0762 55 62 50
0.499584 -70.9309 43.8366 54 61 49
0.499633 -70.9309 43.8666 54 60 49
0.46699 -66.2644 41.1211 47 51 41
0.467035 -66.2644 41.1492 45 48 39
0.46708 -66.2644 41.1773 42 45 36
0.467126 -66.2644 41.2054 40 42 34
0.467171 -66.2644 41.2334 37 40 32
0.467217 -66.2644 41.2615 35 37 30
0.467262 -66.2644 41.2896 32 34 27
0.467308 -66.2644 41.3177 30 32 26
0.443986 -62.9512 39.2785 27 29 24
0.444029 -62.9512 39.3052 25 27 22
0.444072 -62.9512 39.3319 23 25 21
0.444115 -62.9512 39.3585 22 24 20
0.444158 -62.9512 39.3852 20 23 19
0.444202 -62.9512 39.4119 19 22 19
0.444245 -62.9512 39.4386 18 22 19
0.444288 -62.9512 39.4653 18 22 19
0.444331 -62.9512 39.492 17 22 20
0.444374 -62.9512 39.5186 17 22 20
0.444418 -62.9512 39.5453 18 23 21
0.444461 -62.9512 39.572 18 24 21
0.444504 -62.9512 39.5987 18 24 22
0.444547 -62.9512 39.6254 19 25 23
0.44459 -62.9512 39.652 19 26 24
0.444634 -62.9512 39.6787 20 27 25
0.444677 -62.9512 39.7054 21 28 25
0.44472 -62.9512 39.7321 21 29 26
0.444763 -62.9512 39.7588 22 30 27
0.444806 -62.9512 39.7855 22 31 28
0.44485 -62.9512 39.8121 23 31 29
0.444893 -62.9512 39.8388 24 32 30
0.444936 -62.9512 39.8655 24 33 30
0.444979 -62.9512 39.8922 25 34 31
0.445022 -62.9512 39.9189 25 34 32
0.445066 -62.9512 39.9455 26 35 32
0.445109 -62.9512 39.9722 26 35 32
0.445152 -62.9512 39.9989 26 35 33
0.445195 -62.9512 40.0256 26 36 33
0.445238 -62.9512 40.0523 26 36 33
0.445282 -62.9512 40.079 26 35 33
0.445325 -62.9512 40.1056 26 35 32
0.42416 -59.9535 38.2213 26 35 32
0.424201 -59.9535 38.2467 26 35 32
0.424242 -59.9535 38.2721 26 34 31
0.424283 -59.9535 38.2975 25 34 31
0.424325 -59.9535 38.3229 25 34 31
0.424366 -59.9535 38.3483 25 33 30
0.424407 -59.9535 38.3737 24 33 30
0.424448 -59.9535 38.3991 24 32 29
0.424489 -59.9535 38.4246 24 32 29
0.42453 -59.9535 38.45 24 32 29
0.424571 -59.9535 38.4754 23 32 28
0.424613 -59.9535 38.5008 23 32 28
0.424654 -59.9535 38.5262 24 32 28
0.424695 -59.9535 38.5516 24 32 28
0.424736 -59.9535 38.577 24 33 29
0.424777 -59.9535 38.6024 25 34 29
0.424818 -59.9535 38.6278 25 35 30
0.424859 -59.9535 38.6533 26 36 30
0.424901 -59.9535 38.6787 27 37 31
0.424942 -59.9535 38.7041 28 38 32
0.424983 -59.9535 38.7295 29 40 33
0.425024 -59.9535 38.7549 30 41 35
0.425065 -59.9535 38.7803 32 43 36
0.425106 -59.9535 38.8057 33 45 37
0.425147 -59.9535 38.8311 34 47 39
0.425189 -59.9535 38.8565 36 48 40
0.42523 -59.9535 38.882 37 50 42
0.425271 -59.9535 38.9074 39 52 43
0.425312 -59.9535 38.9328 40 54 44
0.425353 -59.9535 38.9582 42 56 46
0.425394 -59.9535 38.9836 43 57 47
0.425435 -59.9535 39.009 45 59 49
0.425477 -59.9535 39.0344 46 61 50
0.425518 -59.9535 39.0598 48 63 52
0.425559 -59.9535 39.0853 49 64 53
0.4256 -59.9535 39.1107 50 66 55
0.425641 -59.9535 39.1361 52 67 56
0.425682 -59.9535 39.1615 53 68 57
0.425723 -59.9535 39.1869 54 69 58
0.425765 -59.9535 39.2123 55 70 59
0.425806 -59.9535 39.2377 56 71 60
0.425847 -59.9535 39.2631 56 72 61
0.464605 -65.4038 42.8602 57 72 61
0.46465 -65.4038 42.888 57 73 62
0.490158 -68.9876 45.2672 58 73 62
0.490205 -68.9876 45.2965 58 73 62
0.511263 -71.9442 47.2682 58 73 62
0.511313 -71.9442 47.2987 57 72 61
0.427781 -59.9535 40.4575 42 54 46
0.427822 -59.9535 40.4829 41 52 44
