ply
format ascii 1.0
comment author : Loiseau & Broux
comment object : 3d point Cloud
element vertex 1365
property float x
property float y
property float z
property uchar red
property uchar green
property uchar blue
end_header
-4.03294 -51.6266 24.7069 92 106 93
-4.03289 -51.6266 24.7283 90 103 91
-3.87772 -49.641 23.7977 87 100 88
-3.87767 -49.641 23.8182 84 97 86
-4.03272 -51.6266 24.7923 81 94 83
-4.03267 -51.6266 24.8137 78 90 79
-4.03261 -51.6266 24.835 74 86 76
-4.03256 -51.6266 24.8564 71 82 72
-4.0325 -51.6266 24.8777 67 78 69
-4.03245 -51.6266 24.899 63 74 65
-3.8773 -49.641 23.9619 59 69 61
-3.87725 -49.641 23.9824 55 65 57
-3.87719 -49.641 24.003 51 60 53
-3.87714 -49.641 24.0235 47 56 50
-3.87709 -49.641 24.044 43 52 46
-3.87703 -49.641 24.0645 40 47 42
-3.87698 -49.641 24.0851 36 44 39
-3.87693 -49.641 24.1056 33 40 36
-3.87687 -49.641 24.1261 29 36 32
-3.87682 -49.641 24.1466 26 33 29
-3.87677 -49.641 24.1672 23 30 27
-3.87671 -49.641 24.1877 21 27 24
-4.03173 -51.6266 25.1765 18 24 22
-4.03167 -51.6266 25.1979 16 22 20
-4.03162 -51.6266 25.2192 15 20 19
-4.03156 -51.6266 25.2406 14 20 18
-4.0315 -51.6266 25.2619 13 19 18
-4.03145 -51.6266 25.2833 13 19 17
-4.03139 -51.6266 25.3046 13 19 17
-4.03134 -51.6266 25.326 13 19 17
-3.87623 -49.641 24.3724 13 18 17
-3.87618 -49.641 24.3929 13 18 17
-3.87613 -49.641 24.4135 13 18 16
-3.87607 -49.641 24.434 12 18 16
-3.87602 -49.641 24.4545 12 17 16
-3.87597 -49.641 24.475 12 17 16
-3.87591 -49.641 24.4956 12 17 15
-3.87586 -49.641 24.5161 12 17 15
-3.87581 -49.641 24.5366 11 16 15
-3.87575 -49.641 24.5571 11 16 15
-3.8757 -49.641 24.5776 12 17 16
-3.87565 -49.641 24.5982 12 18 16
-3.87559 -49.641 24.6187 14 19 18
-3.87554 -49.641 24.6392 15 21 19
-3.87549 -49.641 24.6597 17 24 21
-3.87544 -49.641 24.6803 19 26 23
-3.87538 -49.641 24.7008 21 28 25
-3.87533 -49.641 24.7213 23 31 27
-3.9129 -50.1229 24.9821 26 33 29
-3.91285 -50.1229 25.0028 28 35 31
-3.91279 -50.1229 25.0235 31 38 33
-3.91274 -50.1229 25.0442 34 40 35
-3.87506 -49.641 24.8239 36 43 36
-3.87501 -49.641 24.8445 39 46 38
-3.87496 -49.641 24.865 42 48 40
-3.8749 -49.641 24.8855 45 51 42
-3.87485 -49.641 24.906 47 53 43
-3.8748 -49.641 24.9266 50 55 45
-3.87474 -49.641 24.9471 52 57 46
-3.87469 -49.641 24.9676 54 59 47
-3.87464 -49.641 24.9881 57 60 48
-3.87458 -49.641 25.0087 59 62 49
-3.87453 -49.641 25.0292 60 63 49
-3.87448 -49.641 25.0497 62 64 50
-3.87442 -49.641 25.0702 64 65 50
-3.87437 -49.641 25.0908 65 65 50
-3.87432 -49.641 25.1113 65 65 49
-3.87426 -49.641 25.1318 65 64 49
-3.87421 -49.641 25.1523 65 63 48
-3.87416 -49.641 25.1729 65 63 47
-3.8741 -49.641 25.1934 65 62 46
-3.87405 -49.641 25.2139 65 62 46
-3.874 -49.641 25.2344 65 62 45
-3.87394 -49.641 25.255 65 61 45
-3.87389 -49.641 25.2755 65 61 45
-3.87384 -49.641 25.296 65 61 45
-3.87378 -49.641 25.3165 65 61 44
-3.87373 -49.641 25.3371 65 61 44
-3.87368 -49.641 25.3576 65 61 44
-3.87362 -49.641 25.3781 65 60 44
-3.87357 -49.641 25.3986 65 60 43
-3.87352 -49.641 25.4192 65 60 43
-3.87346 -49.641 25.4397 65 60 43
-3.87341 -49.641 25.4602 65 60 43
-3.87336 -49.641 25.4807 65 59 42
-3.87331 -49.641 25.5013 65 59 42
-3.87325 -49.641 25.5218 65 59 41
-3.8732 -49.641 25.5423 64 58 41
-3.87315 -49.641 25.5628 64 58 41
-3.87309 -49.641 25.5833 64 57 40
-3.87304 -49.641 25.6039 64 57 40
-3.87299 -49.641 25.6244 63 56 39
-3.87293 -49.641 25.6449 63 55 38
-3.87288 -49.641 25.6654 62 54 38
-3.83594 -49.1682 25.4413 61 53 37
-3.83589 -49.1682 25.4617 60 52 36
-3.83584 -49.1682 25.482 60 52 35
-3.83578 -49.1682 25.5023 59 51 35
-3.83573 -49.1682 25.5227 58 51 35
-3.83568 -49.1682 25.543 58 50 34
-3.83563 -49.1682 25.5633 57 50 34
-3.83557 -49.1682 25.5836 56 49 34
-3.69477 -47.3639 24.6644 56 49 34
-3.69472 -47.3639 24.684 55 49 34
-3.69446 -47.3639 24.7819 53 49 34
-3.69441 -47.3639 24.8015 53 49 35
-3.69436 -47.3639 24.821 52 49 35
-3.69431 -47.3639 24.8406 52 49 35
-4.01356 -51.6207 24.2373 96 113 99
-4.01351 -51.6207 24.2586 96 113 99
-4.01345 -51.6207 24.28 97 113 99
-4.0134 -51.6207 24.3013 97 113 99
-3.9736 -51.1096 24.0818 96 113 99
-3.97355 -51.1096 24.103 96 113 99
-4.01323 -51.6207 24.3654 97 113 99
-4.01317 -51.6207 24.3867 97 113 99
-4.01312 -51.6207 24.408 97 113 99
-4.01306 -51.6207 24.4294 97 113 99
-4.01301 -51.6207 24.4507 97 113 99
-4.01295 -51.6207 24.4721 97 113 99
-4.0129 -51.6207 24.4934 97 113 99
-4.01284 -51.6207 24.5148 97 112 99
-4.01279 -51.6207 24.5361 96 112 99
-4.01273 -51.6207 24.5575 96 112 99
-3.97295 -51.1096 24.3355 96 112 99
-3.97289 -51.1096 24.3566 96 112 98
-3.97284 -51.1096 24.3777 96 111 98
-3.97278 -51.1096 24.3989 95 111 98
-3.85813 -49.6353 23.7156 95 110 97
-3.85808 -49.6353 23.7361 94 109 96
-4.01234 -51.6207 24.7069 92 106 94
-4.01229 -51.6207 24.7282 90 104 92
-3.85792 -49.6353 23.7977 87 101 89
-3.85786 -49.6353 23.8182 84 98 86
-4.01212 -51.6207 24.7923 81 94 83
-4.01207 -51.6207 24.8136 78 90 80
-4.01201 -51.6207 24.835 74 86 76
-4.01196 -51.6207 24.8563 71 82 73
-4.0119 -51.6207 24.8776 67 78 69
-4.01184 -51.6207 24.899 63 74 66
-3.85749 -49.6353 23.9619 59 70 62
-3.85744 -49.6353 23.9824 55 65 58
-3.85738 -49.6353 24.0029 51 61 54
-3.85733 -49.6353 24.0234 47 56 50
-3.85728 -49.6353 24.044 44 52 46
-3.85722 -49.6353 24.0645 40 48 43
-3.85717 -49.6353 24.085 36 44 39
-3.85712 -49.6353 24.1055 33 40 36
-3.85706 -49.6353 24.1261 29 36 33
-3.85701 -49.6353 24.1466 26 33 30
-3.85696 -49.6353 24.1671 23 30 27
-3.8569 -49.6353 24.1876 21 27 24
-4.01113 -51.6207 25.1765 18 24 22
-4.01107 -51.6207 25.1978 16 22 20
-4.01101 -51.6207 25.2192 15 20 19
-4.01096 -51.6207 25.2405 14 20 18
-4.0109 -51.6207 25.2619 13 19 18
-4.01085 -51.6207 25.2832 13 19 17
-4.01079 -51.6207 25.3046 13 19 17
-4.01074 -51.6207 25.3259 13 19 17
-3.85642 -49.6353 24.3724 13 18 17
-3.85637 -49.6353 24.3929 13 18 17
-3.85632 -49.6353 24.4134 13 18 16
-3.85627 -49.6353 24.4339 12 18 16
-3.85621 -49.6353 24.4545 12 17 16
-3.85616 -49.6353 24.475 12 17 16
-3.85611 -49.6353 24.4955 12 17 15
-3.85605 -49.6353 24.516 12 17 15
-3.856 -49.6353 24.5365 11 16 15
-3.85595 -49.6353 24.5571 11 16 15
-3.85589 -49.6353 24.5776 12 17 16
-3.85584 -49.6353 24.5981 12 18 16
-3.85579 -49.6353 24.6186 14 19 18
-3.85573 -49.6353 24.6392 15 21 19
-3.85568 -49.6353 24.6597 17 24 21
-3.85563 -49.6353 24.6802 19 26 23
-3.85557 -49.6353 24.7007 21 28 25
-3.85552 -49.6353 24.7213 23 31 27
-3.96999 -51.1096 25.4767 26 33 29
-3.96993 -51.1096 25.4978 28 36 31
-3.96988 -51.1096 25.519 31 38 33
-3.96982 -51.1096 25.5401 34 41 35
-3.85525 -49.6353 24.8239 36 43 37
-3.8552 -49.6353 24.8444 39 46 39
-3.85515 -49.6353 24.8649 42 49 41
-3.85509 -49.6353 24.8855 45 51 43
-3.85504 -49.6353 24.906 47 54 44
-3.85499 -49.6353 24.9265 50 56 46
-3.85493 -49.6353 24.947 52 58 47
-3.85488 -49.6353 24.9676 55 60 48
-3.85483 -49.6353 24.9881 57 61 49
-3.85477 -49.6353 25.0086 59 63 50
-3.85472 -49.6353 25.0291 61 64 51
-3.85467 -49.6353 25.0497 63 65 52
-3.85461 -49.6353 25.0702 64 66 52
-3.85456 -49.6353 25.0907 65 67 52
-3.85451 -49.6353 25.1112 66 66 51
-3.85445 -49.6353 25.1318 66 66 51
-3.8544 -49.6353 25.1523 66 65 50
-3.85435 -49.6353 25.1728 66 64 49
-3.85429 -49.6353 25.1933 66 64 48
-3.85424 -49.6353 25.2139 66 64 48
-3.85419 -49.6353 25.2344 66 63 48
-3.85414 -49.6353 25.2549 66 63 47
-3.85408 -49.6353 25.2754 66 63 47
-3.85403 -49.6353 25.296 66 63 47
-3.85398 -49.6353 25.3165 66 63 47
-3.85392 -49.6353 25.337 66 63 46
-3.85387 -49.6353 25.3575 66 63 46
-3.85382 -49.6353 25.3781 66 62 46
-3.85376 -49.6353 25.3986 66 62 46
-3.85371 -49.6353 25.4191 66 62 45
-3.85366 -49.6353 25.4396 66 62 45
-3.8536 -49.6353 25.4602 66 61 45
-3.85355 -49.6353 25.4807 66 61 44
-3.8535 -49.6353 25.5012 65 61 44
-3.85344 -49.6353 25.5217 65 60 44
-3.85339 -49.6353 25.5422 65 60 43
-3.85334 -49.6353 25.5628 65 60 43
-3.85328 -49.6353 25.5833 65 59 42
-3.85323 -49.6353 25.6038 65 59 42
-3.85318 -49.6353 25.6243 64 58 41
-3.85312 -49.6353 25.6449 63 57 40
-3.85307 -49.6353 25.6654 63 56 39
-3.74499 -48.2437 24.9658 62 55 39
-3.74494 -48.2437 24.9857 61 54 38
-3.74488 -48.2437 25.0057 60 53 37
-3.74483 -48.2437 25.0256 59 52 36
-3.74478 -48.2437 25.0456 58 52 36
-3.74473 -48.2437 25.0655 57 51 36
-3.74468 -48.2437 25.0854 57 50 35
-3.74463 -48.2437 25.1054 56 50 35
-3.60963 -46.5052 24.2199 55 50 35
-3.60958 -46.5052 24.2392 55 49 35
-3.60934 -46.5052 24.3353 52 49 35
-3.60929 -46.5052 24.3545 51 49 35
-3.60924 -46.5052 24.3738 51 49 35
-3.60919 -46.5052 24.393 51 49 36
-3.99296 -51.6148 24.2372 96 113 100
-3.99291 -51.6148 24.2586 97 113 100
-3.99285 -51.6148 24.2799 97 113 100
-3.99279 -51.6148 24.3013 97 113 99
-3.99274 -51.6148 24.3226 96 113 99
-3.99268 -51.6148 24.344 97 113 99
-3.99263 -51.6148 24.3653 97 113 99
-3.99257 -51.6148 24.3866 97 113 99
-3.99252 -51.6148 24.408 97 113 99
-3.99246 -51.6148 24.4293 97 113 99
-3.99241 -51.6148 24.4507 97 113 99
-3.99235 -51.6148 24.472 97 113 99
-3.9923 -51.6148 24.4934 97 113 99
-3.99224 -51.6148 24.5147 97 113 99
-3.99219 -51.6148 24.5361 96 112 99
-3.99213 -51.6148 24.5574 96 112 99
-3.99207 -51.6148 24.5788 96 112 99
-3.99202 -51.6148 24.6001 96 112 99
-3.99196 -51.6148 24.6214 96 111 98
-3.99191 -51.6148 24.6428 95 111 98
-3.83832 -49.6296 23.7155 95 110 97
-3.83827 -49.6296 23.736 94 109 96
-3.99174 -51.6148 24.7068 92 107 94
-3.99169 -51.6148 24.7282 90 104 92
-3.83811 -49.6296 23.7976 87 101 89
-3.83805 -49.6296 23.8181 84 98 86
-3.99152 -51.6148 24.7922 81 94 83
-3.99147 -51.6148 24.8136 78 90 80
-3.99141 -51.6148 24.8349 74 86 77
-3.99135 -51.6148 24.8562 71 82 73
-3.9913 -51.6148 24.8776 67 78 69
-3.99124 -51.6148 24.8989 63 74 66
-3.83768 -49.6296 23.9618 59 70 62
-3.83763 -49.6296 23.9823 55 65 58
-3.83757 -49.6296 24.0029 51 61 54
-3.83752 -49.6296 24.0234 47 56 50
-3.83747 -49.6296 24.0439 44 52 46
-3.83741 -49.6296 24.0644 40 48 43
-3.83736 -49.6296 24.085 36 44 39
-3.83731 -49.6296 24.1055 33 40 36
-3.83726 -49.6296 24.126 29 36 33
-3.8372 -49.6296 24.1465 26 33 30
-3.83715 -49.6296 24.1671 23 30 27
-3.8371 -49.6296 24.1876 21 27 24
-3.99052 -51.6148 25.1764 18 24 22
-3.99047 -51.6148 25.1978 16 22 20
-3.99041 -51.6148 25.2191 15 20 19
-3.99036 -51.6148 25.2405 14 20 18
-3.9903 -51.6148 25.2618 13 19 18
-3.99025 -51.6148 25.2832 13 19 17
-3.99019 -51.6148 25.3045 13 19 17
-3.99014 -51.6148 25.3258 13 19 17
-3.83662 -49.6296 24.3723 13 18 17
-3.83656 -49.6296 24.3928 13 18 17
-3.83651 -49.6296 24.4134 13 18 16
-3.83646 -49.6296 24.4339 12 18 16
-3.8364 -49.6296 24.4544 12 17 16
-3.83635 -49.6296 24.4749 12 17 16
-3.8363 -49.6296 24.4954 12 17 15
-3.83624 -49.6296 24.516 12 17 15
-3.83619 -49.6296 24.5365 11 16 15
-3.83614 -49.6296 24.557 11 16 15
-3.83608 -49.6296 24.5775 12 17 16
-3.83603 -49.6296 24.5981 12 18 16
-3.83598 -49.6296 24.6186 14 19 18
-3.83592 -49.6296 24.6391 15 21 19
-3.83587 -49.6296 24.6596 17 24 21
-3.83582 -49.6296 24.6802 19 26 23
-3.83576 -49.6296 24.7007 21 28 25
-3.83571 -49.6296 24.7212 23 31 27
-3.98908 -51.6148 25.7314 26 33 29
-3.98903 -51.6148 25.7528 28 36 31
-3.98897 -51.6148 25.7741 31 38 33
-3.98892 -51.6148 25.7954 34 41 35
-3.83544 -49.6296 24.8238 37 44 37
-3.83539 -49.6296 24.8444 39 47 39
-3.83534 -49.6296 24.8649 42 49 41
-3.83528 -49.6296 24.8854 45 52 43
-3.83523 -49.6296 24.9059 48 54 45
-3.83518 -49.6296 24.9265 50 57 47
-3.83512 -49.6296 24.947 53 59 48
-3.83507 -49.6296 24.9675 55 61 49
-3.83502 -49.6296 24.988 57 62 51
-3.83497 -49.6296 25.0086 59 64 52
-3.83491 -49.6296 25.0291 61 65 52
-3.83486 -49.6296 25.0496 63 67 53
-3.83481 -49.6296 25.0701 65 68 54
-3.83475 -49.6296 25.0907 66 68 54
-3.8347 -49.6296 25.1112 66 68 53
-3.83465 -49.6296 25.1317 66 67 52
-3.83459 -49.6296 25.1522 66 67 52
-3.83454 -49.6296 25.1728 66 66 51
-3.83449 -49.6296 25.1933 66 66 50
-3.83443 -49.6296 25.2138 66 65 50
-3.83438 -49.6296 25.2343 66 65 50
-3.83433 -49.6296 25.2549 66 65 49
-3.83427 -49.6296 25.2754 66 65 49
-3.83422 -49.6296 25.2959 66 65 49
-3.83417 -49.6296 25.3164 66 65 49
-3.83411 -49.6296 25.337 66 65 49
-3.83406 -49.6296 25.3575 66 64 48
-3.83401 -49.6296 25.378 66 64 48
-3.83395 -49.6296 25.3985 66 64 48
-3.8339 -49.6296 25.4191 66 64 47
-3.83385 -49.6296 25.4396 66 63 47
-3.83379 -49.6296 25.4601 66 63 47
-3.83374 -49.6296 25.4806 66 63 46
-3.83369 -49.6296 25.5011 66 63 46
-3.83363 -49.6296 25.5217 66 62 46
-3.83358 -49.6296 25.5422 66 62 45
-3.83353 -49.6296 25.5627 66 61 45
-3.83347 -49.6296 25.5832 65 61 44
-3.83342 -49.6296 25.6038 65 60 44
-3.83337 -49.6296 25.6243 65 60 43
-3.83331 -49.6296 25.6448 64 58 42
-3.83326 -49.6296 25.6653 63 57 41
-3.69124 -47.7915 24.7345 62 56 40
-3.69119 -47.7915 24.7543 61 55 39
-3.69113 -47.7915 24.7741 60 54 39
-3.69108 -47.7915 24.7938 59 53 38
-3.65717 -47.353 24.586 58 52 37
-3.65712 -47.353 24.6055 57 52 37
-3.65707 -47.353 24.6251 56 51 36
-3.65702 -47.353 24.6447 56 51 36
-3.97236 -51.6089 24.2372 97 113 100
-3.9723 -51.6089 24.2585 97 114 100
-3.97225 -51.6089 24.2799 97 114 100
-3.97219 -51.6089 24.3012 97 113 100
-3.97214 -51.6089 24.3226 97 113 99
-3.97208 -51.6089 24.3439 97 113 99
-3.97203 -51.6089 24.3653 97 113 99
-3.97197 -51.6089 24.3866 97 113 99
-3.97192 -51.6089 24.4079 97 113 99
-3.97186 -51.6089 24.4293 97 113 99
-3.97181 -51.6089 24.4506 97 113 99
-3.97175 -51.6089 24.472 97 113 99
-3.97169 -51.6089 24.4933 97 113 99
-3.97164 -51.6089 24.5147 97 113 99
-3.97158 -51.6089 24.536 96 112 99
-3.97153 -51.6089 24.5574 96 112 99
-3.97147 -51.6089 24.5787 96 112 99
-3.97142 -51.6089 24.6001 96 112 99
-3.97136 -51.6089 24.6214 96 111 98
-3.97131 -51.6089 24.6427 95 111 98
-3.81851 -49.6239 23.7155 95 110 97
-3.81846 -49.6239 23.736 94 109 96
-3.97114 -51.6089 24.7068 92 107 94
-3.97109 -51.6089 24.7281 90 104 92
-3.8183 -49.6239 23.7976 87 101 89
-3.81824 -49.6239 23.8181 84 98 86
-3.97092 -51.6089 24.7922 81 94 83
-3.97086 -51.6089 24.8135 78 90 80
-3.97081 -51.6089 24.8349 74 86 77
-3.97075 -51.6089 24.8562 71 82 73
-3.9707 -51.6089 24.8775 67 78 70
-3.97064 -51.6089 24.8989 63 74 66
-3.81787 -49.6239 23.9618 59 70 62
-3.81782 -49.6239 23.9823 55 65 58
-3.81777 -49.6239 24.0028 51 61 54
-3.81771 -49.6239 24.0233 47 56 50
-3.81766 -49.6239 24.0439 43 52 46
-3.81761 -49.6239 24.0644 40 48 43
-3.81755 -49.6239 24.0849 36 44 39
-3.8175 -49.6239 24.1054 33 40 36
-3.81745 -49.6239 24.126 29 36 33
-3.81739 -49.6239 24.1465 26 33 30
-3.81734 -49.6239 24.167 23 30 27
-3.81729 -49.6239 24.1875 20 27 24
-3.96992 -51.6089 25.1764 18 24 22
-3.96987 -51.6089 25.1977 16 22 20
-3.96981 -51.6089 25.2191 15 20 19
-3.96976 -51.6089 25.2404 14 20 18
-3.9697 -51.6089 25.2618 13 19 18
-3.96965 -51.6089 25.2831 13 19 17
-3.96959 -51.6089 25.3045 13 19 17
-3.96953 -51.6089 25.3258 13 19 17
-3.81681 -49.6239 24.3723 13 18 17
-3.81675 -49.6239 24.3928 13 18 17
-3.8167 -49.6239 24.4133 12 18 16
-3.81665 -49.6239 24.4338 12 18 16
-3.81659 -49.6239 24.4543 12 17 16
-3.81654 -49.6239 24.4749 12 17 16
-3.81649 -49.6239 24.4954 12 17 15
-3.81643 -49.6239 24.5159 12 17 15
-3.81638 -49.6239 24.5364 11 16 15
-3.81633 -49.6239 24.557 11 16 15
-3.81627 -49.6239 24.5775 12 17 16
-3.81622 -49.6239 24.598 12 18 16
-3.81617 -49.6239 24.6185 14 19 18
-3.81611 -49.6239 24.6391 15 21 19
-3.81606 -49.6239 24.6596 17 24 21
-3.81601 -49.6239 24.6801 19 26 23
-3.81596 -49.6239 24.7006 21 28 25
-3.8159 -49.6239 24.7212 24 31 27
-3.96848 -51.6089 25.7314 26 33 29
-3.96843 -51.6089 25.7527 28 36 31
-3.96837 -51.6089 25.7741 31 39 33
-3.96832 -51.6089 25.7954 34 41 36
-3.81564 -49.6239 24.8238 37 44 38
-3.81558 -49.6239 24.8443 39 47 40
-3.81553 -49.6239 24.8648 42 50 42
-3.81548 -49.6239 24.8854 45 52 44
-3.81542 -49.6239 24.9059 48 55 46
-3.81537 -49.6239 24.9264 50 57 47
-3.81532 -49.6239 24.9469 53 59 49
-3.81526 -49.6239 24.9675 55 61 50
-3.81521 -49.6239 24.988 58 63 52
-3.81516 -49.6239 25.0085 60 65 53
-3.8151 -49.6239 25.029 62 67 54
-3.81505 -49.6239 25.0496 63 68 54
-3.815 -49.6239 25.0701 65 69 55
-3.81494 -49.6239 25.0906 66 69 55
-3.81489 -49.6239 25.1111 66 69 55
-3.81484 -49.6239 25.1317 67 69 54
-3.81478 -49.6239 25.1522 67 68 53
-3.81473 -49.6239 25.1727 67 68 53
-3.81468 -49.6239 25.1932 67 67 52
-3.81462 -49.6239 25.2138 67 67 52
-3.81457 -49.6239 25.2343 67 67 51
-3.81452 -49.6239 25.2548 67 67 51
-3.81446 -49.6239 25.2753 67 67 51
-3.81441 -49.6239 25.2959 67 67 51
-3.81436 -49.6239 25.3164 67 66 51
-3.8143 -49.6239 25.3369 67 66 51
-3.81425 -49.6239 25.3574 67 66 50
-3.8142 -49.6239 25.378 67 66 50
-3.81414 -49.6239 25.3985 67 66 50
-3.81409 -49.6239 25.419 67 65 50
-3.81404 -49.6239 25.4395 67 65 49
-3.81398 -49.6239 25.46 67 65 49
-3.81393 -49.6239 25.4806 67 65 49
-3.81388 -49.6239 25.5011 67 64 48
-3.81382 -49.6239 25.5216 66 64 48
-3.81377 -49.6239 25.5421 66 64 48
-3.81372 -49.6239 25.5627 66 63 47
-3.81367 -49.6239 25.5832 66 63 47
-3.81361 -49.6239 25.6037 66 62 46
-3.81356 -49.6239 25.6242 65 61 45
-3.81351 -49.6239 25.6448 64 60 44
-3.81345 -49.6239 25.6653 63 59 43
-3.67216 -47.786 24.7345 62 58 42
-3.67211 -47.786 24.7543 61 56 41
-3.67206 -47.786 24.774 60 55 40
-3.67201 -47.786 24.7938 59 54 39
-3.57271 -46.4945 24.1429 58 53 39
-3.57266 -46.4945 24.1621 57 53 38
-3.57261 -46.4945 24.1814 56 52 38
-3.57257 -46.4945 24.2006 55 51 37
-3.95176 -51.603 24.2371 97 114 100
-3.9517 -51.603 24.2585 97 114 101
-3.95165 -51.603 24.2798 97 114 100
-3.95159 -51.603 24.3012 97 114 100
-3.95154 -51.603 24.3225 97 113 99
-3.95148 -51.603 24.3439 97 113 99
-3.95143 -51.603 24.3652 97 113 99
-3.95137 -51.603 24.3865 97 113 99
-3.95131 -51.603 24.4079 97 113 99
-3.95126 -51.603 24.4292 97 113 100
-3.9512 -51.603 24.4506 97 113 99
-3.95115 -51.603 24.4719 97 113 99
-3.95109 -51.603 24.4933 97 113 99
-3.95104 -51.603 24.5146 97 112 99
-3.95098 -51.603 24.536 96 112 99
-3.95093 -51.603 24.5573 96 112 99
-3.95087 -51.603 24.5787 96 112 99
-3.95082 -51.603 24.6 96 112 99
-3.95076 -51.603 24.6213 96 111 98
-3.95071 -51.603 24.6427 95 111 98
-3.83558 -50.1 23.9457 95 110 97
-3.83553 -50.1 23.9664 94 109 96
-3.95054 -51.603 24.7067 92 107 94
-3.95048 -51.603 24.7281 90 104 92
-3.83537 -50.1 24.0286 87 101 89
-3.83531 -50.1 24.0493 84 98 86
-3.95032 -51.603 24.7921 81 94 83
-3.95026 -51.603 24.8135 78 90 80
-3.95021 -51.603 24.8348 74 86 77
-3.95015 -51.603 24.8561 71 82 73
-3.9501 -51.603 24.8775 67 78 69
-3.95004 -51.603 24.8988 63 74 66
-3.79806 -49.6182 23.9617 59 70 62
-3.79801 -49.6182 23.9822 55 65 58
-3.79796 -49.6182 24.0028 51 61 54
-3.7979 -49.6182 24.0233 47 56 50
-3.79785 -49.6182 24.0438 43 52 46
-3.7978 -49.6182 24.0643 40 48 43
-3.79774 -49.6182 24.0849 36 44 39
-3.79769 -49.6182 24.1054 33 40 36
-3.79764 -49.6182 24.1259 29 36 33
-3.79758 -49.6182 24.1464 26 33 30
-3.79753 -49.6182 24.167 23 29 27
-3.79748 -49.6182 24.1875 20 27 24
-3.91022 -51.0921 24.9271 18 24 22
-3.91016 -51.0921 24.9482 16 22 20
-3.94921 -51.603 25.219 15 20 19
-3.94915 -51.603 25.2404 14 20 18
-3.9491 -51.603 25.2617 13 19 18
-3.94904 -51.603 25.2831 13 19 17
-3.90989 -51.0921 25.0539 13 19 17
-3.90984 -51.0921 25.075 13 19 17
-3.797 -49.6182 24.3722 13 18 17
-3.79694 -49.6182 24.3927 13 18 17
-3.79689 -49.6182 24.4132 12 18 16
-3.79684 -49.6182 24.4338 12 18 16
-3.79679 -49.6182 24.4543 12 17 16
-3.79673 -49.6182 24.4748 12 17 16
-3.79668 -49.6182 24.4953 12 17 16
-3.79663 -49.6182 24.5159 12 17 15
-3.79657 -49.6182 24.5364 11 16 15
-3.79652 -49.6182 24.5569 11 16 15
-3.79647 -49.6182 24.5774 12 17 16
-3.79641 -49.6182 24.598 12 18 17
-3.79636 -49.6182 24.6185 14 19 18
-3.79631 -49.6182 24.639 15 21 20
-3.79625 -49.6182 24.6595 17 24 21
-3.7962 -49.6182 24.6801 19 26 23
-3.79615 -49.6182 24.7006 21 28 25
-3.79609 -49.6182 24.7211 24 31 27
-3.94788 -51.603 25.7313 26 33 29
-3.94783 -51.603 25.7527 28 36 32
-3.94777 -51.603 25.774 31 39 34
-3.94771 -51.603 25.7953 34 42 36
-3.79583 -49.6182 24.8237 37 44 38
-3.79577 -49.6182 24.8443 40 47 40
-3.79572 -49.6182 24.8648 42 50 42
-3.79567 -49.6182 24.8853 45 53 44
-3.79561 -49.6182 24.9058 48 55 46
-3.79556 -49.6182 24.9264 51 58 48
-3.79551 -49.6182 24.9469 53 60 50
-3.79545 -49.6182 24.9674 56 62 51
-3.7954 -49.6182 24.9879 58 64 52
-3.79535 -49.6182 25.0085 60 66 54
-3.79529 -49.6182 25.029 62 67 55
-3.79524 -49.6182 25.0495 64 69 56
-3.79519 -49.6182 25.07 65 70 56
-3.79513 -49.6182 25.0906 66 70 56
-3.79508 -49.6182 25.1111 67 70 56
-3.79503 -49.6182 25.1316 67 70 55
-3.79497 -49.6182 25.1521 67 69 55
-3.79492 -49.6182 25.1727 67 69 54
-3.79487 -49.6182 25.1932 67 69 54
-3.79481 -49.6182 25.2137 67 68 53
-3.79476 -49.6182 25.2342 67 68 53
-3.79471 -49.6182 25.2548 67 68 53
-3.79465 -49.6182 25.2753 67 68 53
-3.7946 -49.6182 25.2958 67 68 53
-3.79455 -49.6182 25.3163 67 68 52
-3.7945 -49.6182 25.3369 67 68 52
-3.79444 -49.6182 25.3574 67 68 52
-3.79439 -49.6182 25.3779 67 67 52
-3.79434 -49.6182 25.3984 67 67 52
-3.79428 -49.6182 25.4189 67 67 51
-3.79423 -49.6182 25.4395 67 67 51
-3.79418 -49.6182 25.46 67 67 51
-3.79412 -49.6182 25.4805 67 66 51
-3.79407 -49.6182 25.501 67 66 50
-3.79402 -49.6182 25.5216 67 66 50
-3.79396 -49.6182 25.5421 67 65 50
-3.79391 -49.6182 25.5626 67 65 49
-3.79386 -49.6182 25.5831 66 65 49
-3.7938 -49.6182 25.6037 66 64 48
-3.79375 -49.6182 25.6242 66 63 47
-3.7937 -49.6182 25.6447 65 62 46
-3.79364 -49.6182 25.6652 64 60 45
-3.68723 -48.2271 24.9656 62 59 44
-3.68718 -48.2271 24.9856 61 58 43
-3.65298 -47.7805 24.774 60 57 42
-3.65293 -47.7805 24.7937 59 55 41
-3.71752 -48.6821 26.9329 12 17 14
-3.71747 -48.6821 26.9531 13 17 15
-3.93116 -51.5971 24.2371 98 114 101
-3.9311 -51.5971 24.2584 98 114 101
-3.93105 -51.5971 24.2798 98 114 101
-3.93099 -51.5971 24.3011 97 114 100
-3.93093 -51.5971 24.3225 97 113 100
-3.93088 -51.5971 24.3438 97 113 99
-3.93082 -51.5971 24.3651 97 113 99
-3.93077 -51.5971 24.3865 97 113 99
-3.93071 -51.5971 24.4078 97 113 99
-3.93066 -51.5971 24.4292 97 113 100
-3.9306 -51.5971 24.4505 97 113 99
-3.93055 -51.5971 24.4719 97 113 99
-3.93049 -51.5971 24.4932 97 113 99
-3.93044 -51.5971 24.5146 97 112 99
-3.93038 -51.5971 24.5359 96 112 99
-3.93033 -51.5971 24.5573 96 112 99
-3.93027 -51.5971 24.5786 96 112 99
-3.93022 -51.5971 24.5999 96 112 99
-3.93016 -51.5971 24.6213 96 111 98
-3.9301 -51.5971 24.6426 95 111 98
-3.89114 -51.0862 24.4198 95 110 97
-3.89108 -51.0862 24.4409 93 109 96
-3.92994 -51.5971 24.7067 92 107 94
-3.92988 -51.5971 24.728 90 104 92
-3.89092 -51.0862 24.5043 87 101 89
-3.89086 -51.0862 24.5255 84 98 86
-3.92972 -51.5971 24.7921 81 94 83
-3.92966 -51.5971 24.8134 78 90 80
-3.92961 -51.5971 24.8347 74 86 77
-3.92955 -51.5971 24.8561 71 82 73
-3.9295 -51.5971 24.8774 67 78 69
-3.92944 -51.5971 24.8988 63 74 66
-3.77825 -49.6126 23.9617 59 70 62
-3.7782 -49.6126 23.9822 55 65 58
-3.77815 -49.6126 24.0027 51 61 54
-3.77809 -49.6126 24.0232 47 56 50
-3.77804 -49.6126 24.0438 43 52 46
-3.77799 -49.6126 24.0643 40 48 43
-3.77793 -49.6126 24.0848 36 44 39
-3.77788 -49.6126 24.1053 33 40 36
-3.77783 -49.6126 24.1259 29 36 33
-3.77777 -49.6126 24.1464 26 33 30
-3.77772 -49.6126 24.1669 23 29 27
-3.77767 -49.6126 24.1874 20 26 24
-3.81429 -50.0942 24.443 18 24 22
-3.81424 -50.0942 24.4637 16 22 20
-3.92861 -51.5971 25.219 15 20 19
-3.92855 -51.5971 25.2403 14 20 18
-3.9285 -51.5971 25.2617 13 19 18
-3.92844 -51.5971 25.283 13 19 17
-3.81397 -50.0942 24.5673 13 19 17
-3.81391 -50.0942 24.588 13 19 17
-3.77719 -49.6126 24.3721 13 18 17
-3.77714 -49.6126 24.3927 13 18 17
-3.77708 -49.6126 24.4132 12 18 16
-3.77703 -49.6126 24.4337 12 18 16
-3.77698 -49.6126 24.4542 12 17 16
-3.77692 -49.6126 24.4748 12 17 16
-3.77687 -49.6126 24.4953 12 17 16
-3.77682 -49.6126 24.5158 12 17 15
-3.77676 -49.6126 24.5363 11 16 15
-3.77671 -49.6126 24.5569 11 16 15
-3.77666 -49.6126 24.5774 12 17 16
-3.7766 -49.6126 24.5979 12 18 17
-3.77655 -49.6126 24.6184 14 19 18
-3.7765 -49.6126 24.639 15 21 20
-3.77644 -49.6126 24.6595 17 24 21
-3.77639 -49.6126 24.68 19 26 23
-3.77634 -49.6126 24.7005 21 28 25
-3.77628 -49.6126 24.7211 24 31 28
-3.92728 -51.5971 25.7313 26 34 30
-3.92722 -51.5971 25.7526 29 36 32
-3.92717 -51.5971 25.7739 31 39 34
-3.92711 -51.5971 25.7953 34 42 36
-3.77602 -49.6126 24.8237 37 45 38
-3.77596 -49.6126 24.8442 40 48 41
-3.77591 -49.6126 24.8647 43 50 43
-3.77586 -49.6126 24.8853 45 53 45
-3.7758 -49.6126 24.9058 48 56 47
-3.77575 -49.6126 24.9263 51 58 49
-3.7757 -49.6126 24.9468 53 61 50
-3.77564 -49.6126 24.9674 56 63 52
-3.77559 -49.6126 24.9879 58 65 53
-3.77554 -49.6126 25.0084 60 67 55
-3.77549 -49.6126 25.0289 62 68 56
-3.77543 -49.6126 25.0495 64 70 57
-3.77538 -49.6126 25.07 65 71 57
-3.77533 -49.6126 25.0905 66 71 57
-3.77527 -49.6126 25.111 67 71 57
-3.77522 -49.6126 25.1316 67 71 57
-3.77517 -49.6126 25.1521 67 71 56
-3.77511 -49.6126 25.1726 67 70 55
-3.77506 -49.6126 25.1931 67 70 55
-3.77501 -49.6126 25.2137 67 70 55
-3.77495 -49.6126 25.2342 67 69 54
-3.7749 -49.6126 25.2547 67 69 54
-3.77485 -49.6126 25.2752 67 69 54
-3.77479 -49.6126 25.2958 67 69 54
-3.77474 -49.6126 25.3163 68 69 54
-3.77469 -49.6126 25.3368 68 69 54
-3.77463 -49.6126 25.3573 68 69 54
-3.77458 -49.6126 25.3778 68 69 53
-3.77453 -49.6126 25.3984 68 69 53
-3.77447 -49.6126 25.4189 68 68 53
-3.77442 -49.6126 25.4394 68 68 53
-3.77437 -49.6126 25.4599 68 68 53
-3.77431 -49.6126 25.4805 67 68 52
-3.77426 -49.6126 25.501 67 68 52
-3.77421 -49.6126 25.5215 67 67 52
-3.77415 -49.6126 25.542 67 67 51
-3.7741 -49.6126 25.5626 67 67 51
-3.77405 -49.6126 25.5831 67 66 51
-3.77399 -49.6126 25.6036 67 65 50
-3.77394 -49.6126 25.6241 66 65 49
-3.77389 -49.6126 25.6447 65 63 48
-3.77383 -49.6126 25.6652 64 62 47
-3.73784 -49.1401 25.4411 63 60 46
-3.73779 -49.1401 25.4614 61 59 45
-3.63391 -47.7751 24.7739 60 58 43
-3.63386 -47.7751 24.7937 59 56 42
-3.91067 -51.5911 24.1943 99 115 102
-3.91061 -51.5911 24.2157 98 115 102
-3.91056 -51.5911 24.237 98 115 102
-3.9105 -51.5911 24.2584 98 115 101
-3.91044 -51.5911 24.2797 98 115 101
-3.91039 -51.5911 24.3011 98 114 100
-3.91033 -51.5911 24.3224 97 114 100
-3.91028 -51.5911 24.3437 97 113 99
-3.91022 -51.5911 24.3651 97 113 99
-3.91017 -51.5911 24.3864 97 113 99
-3.91011 -51.5911 24.4078 97 113 100
-3.91006 -51.5911 24.4291 97 113 100
-3.91 -51.5911 24.4505 97 113 99
-3.90995 -51.5911 24.4718 97 113 99
-3.90989 -51.5911 24.4932 97 113 99
-3.90984 -51.5911 24.5145 97 112 99
-3.90978 -51.5911 24.5359 96 112 99
-3.90972 -51.5911 24.5572 96 112 99
-3.90967 -51.5911 24.5785 96 112 99
-3.90961 -51.5911 24.5999 96 112 99
-3.90956 -51.5911 24.6212 96 111 98
-3.9095 -51.5911 24.6426 95 111 98
-3.90945 -51.5911 24.6639 95 110 97
-3.90939 -51.5911 24.6853 93 109 96
-3.90934 -51.5911 24.7066 92 107 94
-3.90928 -51.5911 24.728 90 104 92
-3.90923 -51.5911 24.7493 87 101 89
-3.90917 -51.5911 24.7707 84 98 86
-3.90912 -51.5911 24.792 81 94 83
-3.90906 -51.5911 24.8133 78 90 80
-3.909 -51.5911 24.8347 74 86 77
-3.90895 -51.5911 24.856 71 82 73
-3.90889 -51.5911 24.8774 67 78 69
-3.90884 -51.5911 24.8987 63 74 66
-3.75845 -49.6069 23.9616 59 69 62
-3.75839 -49.6069 23.9821 55 65 58
-3.75834 -49.6069 24.0027 51 61 54
-3.75829 -49.6069 24.0232 47 56 50
-3.75823 -49.6069 24.0437 43 52 46
-3.75818 -49.6069 24.0642 40 48 43
-3.75813 -49.6069 24.0848 36 44 39
-3.75807 -49.6069 24.1053 33 40 36
-3.75802 -49.6069 24.1258 29 36 33
-3.75797 -49.6069 24.1463 26 33 30
-3.75791 -49.6069 24.1669 23 29 27
-3.75786 -49.6069 24.1874 20 26 24
-3.75781 -49.6069 24.2079 18 24 22
-3.75775 -49.6069 24.2284 16 22 20
-3.90801 -51.5911 25.2189 15 20 19
-3.90795 -51.5911 25.2403 14 20 18
-3.9079 -51.5911 25.2616 13 19 18
-3.90784 -51.5911 25.2829 13 19 17
-3.75749 -49.6069 24.331 13 19 17
-3.75743 -49.6069 24.3516 13 19 17
-3.75738 -49.6069 24.3721 13 18 17
-3.75733 -49.6069 24.3926 13 18 17
-3.75727 -49.6069 24.4131 12 18 16
-3.75722 -49.6069 24.4337 12 18 16
-3.75717 -49.6069 24.4542 12 17 16
-3.75711 -49.6069 24.4747 12 17 16
-3.75706 -49.6069 24.4952 12 17 16
-3.75701 -49.6069 24.5158 12 17 15
-3.75695 -49.6069 24.5363 11 16 15
-3.7569 -49.6069 24.5568 11 16 15
-3.75685 -49.6069 24.5773 12 17 16
-3.75679 -49.6069 24.5979 12 18 17
-3.75674 -49.6069 24.6184 14 19 18
-3.75669 -49.6069 24.6389 15 21 20
-3.75663 -49.6069 24.6594 17 24 21
-3.75658 -49.6069 24.68 19 26 23
-3.75653 -49.6069 24.7005 21 28 25
-3.75647 -49.6069 24.721 24 31 28
-3.90668 -51.5911 25.7312 26 34 30
-3.90662 -51.5911 25.7525 29 36 32
-3.90657 -51.5911 25.7739 31 39 34
-3.90651 -51.5911 25.7952 34 42 36
-3.75621 -49.6069 24.8236 37 45 39
-3.75616 -49.6069 24.8442 40 48 41
-3.7561 -49.6069 24.8647 43 51 43
-3.75605 -49.6069 24.8852 45 54 45
-3.756 -49.6069 24.9057 48 56 47
-3.75594 -49.6069 24.9263 51 59 49
-3.75589 -49.6069 24.9468 53 61 51
-3.75584 -49.6069 24.9673 56 63 53
-3.75578 -49.6069 24.9878 58 66 54
-3.75573 -49.6069 25.0084 60 67 55
-3.75568 -49.6069 25.0289 62 69 57
-3.75562 -49.6069 25.0494 64 71 57
-3.75557 -49.6069 25.0699 66 72 58
-3.75552 -49.6069 25.0905 67 72 58
-3.75546 -49.6069 25.111 67 72 58
-3.75541 -49.6069 25.1315 68 72 58
-3.75536 -49.6069 25.152 68 72 57
-3.7553 -49.6069 25.1726 68 71 57
-3.75525 -49.6069 25.1931 68 71 56
-3.7552 -49.6069 25.2136 68 71 56
-3.75514 -49.6069 25.2341 68 71 56
-3.75509 -49.6069 25.2547 68 71 56
-3.75504 -49.6069 25.2752 68 71 56
-3.75498 -49.6069 25.2957 68 70 56
-3.75493 -49.6069 25.3162 68 70 55
-3.75488 -49.6069 25.3367 68 70 55
-3.75482 -49.6069 25.3573 68 70 55
-3.75477 -49.6069 25.3778 68 70 55
-3.75472 -49.6069 25.3983 68 70 55
-3.75466 -49.6069 25.4188 68 70 54
-3.75461 -49.6069 25.4394 68 70 54
-3.75456 -49.6069 25.4599 68 69 54
-3.7545 -49.6069 25.4804 68 69 54
-3.75445 -49.6069 25.5009 68 69 54
-3.7544 -49.6069 25.5215 68 69 53
-3.75434 -49.6069 25.542 68 68 53
-3.75429 -49.6069 25.5625 68 68 53
-3.75424 -49.6069 25.583 67 68 52
-3.75419 -49.6069 25.6036 67 67 52
-3.75413 -49.6069 25.6241 66 66 51
-3.75408 -49.6069 25.6446 65 65 50
-3.75403 -49.6069 25.6651 64 63 49
-3.75397 -49.6069 25.6857 63 62 47
-3.75392 -49.6069 25.7062 62 60 46
-3.61483 -47.7696 24.7739 60 59 45
-3.61478 -47.7696 24.7936 59 57 44
-3.89006 -51.5852 24.1943 99 116 103
-3.89001 -51.5852 24.2156 99 116 102
-3.88995 -51.5852 24.237 99 115 102
-3.8899 -51.5852 24.2583 99 115 102
-3.88984 -51.5852 24.2797 98 115 101
-3.88979 -51.5852 24.301 98 114 101
-3.88973 -51.5852 24.3223 98 114 100
-3.88968 -51.5852 24.3437 97 114 100
-3.88962 -51.5852 24.365 97 113 100
-3.88957 -51.5852 24.3864 97 113 100
-3.88951 -51.5852 24.4077 97 113 100
-3.88946 -51.5852 24.4291 97 113 100
-3.8894 -51.5852 24.4504 97 113 100
-3.88934 -51.5852 24.4718 97 113 99
-3.88929 -51.5852 24.4931 97 113 99
-3.88923 -51.5852 24.5145 97 112 99
-3.88918 -51.5852 24.5358 96 112 99
-3.88912 -51.5852 24.5571 96 112 99
-3.88907 -51.5852 24.5785 96 112 99
-3.88901 -51.5852 24.5998 96 112 99
-3.88896 -51.5852 24.6212 96 111 98
-3.8889 -51.5852 24.6425 95 111 98
-3.88885 -51.5852 24.6639 94 110 97
-3.88879 -51.5852 24.6852 93 109 96
-3.88874 -51.5852 24.7066 92 106 94
-3.88868 -51.5852 24.7279 90 104 92
-3.88862 -51.5852 24.7493 87 101 89
-3.88857 -51.5852 24.7706 84 97 86
-3.88851 -51.5852 24.7919 81 94 83
-3.88846 -51.5852 24.8133 78 90 80
-3.8884 -51.5852 24.8346 74 86 76
-3.88835 -51.5852 24.856 71 82 73
-3.88829 -51.5852 24.8773 67 78 69
-3.88824 -51.5852 24.8987 63 74 66
-3.73864 -49.6012 23.9616 59 69 62
-3.73858 -49.6012 23.9821 55 65 58
-3.73853 -49.6012 24.0026 51 60 54
-3.73848 -49.6012 24.0231 47 56 50
-3.73842 -49.6012 24.0437 43 52 46
-3.73837 -49.6012 24.0642 40 48 43
-3.73832 -49.6012 24.0847 36 44 39
-3.73826 -49.6012 24.1052 33 40 36
-3.73821 -49.6012 24.1258 29 36 33
-3.73816 -49.6012 24.1463 26 33 30
-3.7381 -49.6012 24.1668 23 29 27
-3.73805 -49.6012 24.1873 20 26 24
-3.738 -49.6012 24.2079 18 24 22
-3.73794 -49.6012 24.2284 16 22 20
-3.88741 -51.5852 25.2189 15 20 19
-3.88735 -51.5852 25.2402 14 19 18
-3.8873 -51.5852 25.2615 13 19 18
-3.88724 -51.5852 25.2829 13 19 17
-3.73768 -49.6012 24.331 13 19 17
-3.73762 -49.6012 24.3515 13 19 17
-3.73757 -49.6012 24.372 13 18 17
-3.73752 -49.6012 24.3926 13 18 17
-3.73746 -49.6012 24.4131 12 18 16
-3.73741 -49.6012 24.4336 12 18 16
-3.73736 -49.6012 24.4541 12 17 16
-3.7373 -49.6012 24.4747 12 17 16
-3.73725 -49.6012 24.4952 12 17 16
-3.7372 -49.6012 24.5157 12 16 15
-3.73715 -49.6012 24.5362 11 16 15
-3.73709 -49.6012 24.5568 11 16 15
-3.73704 -49.6012 24.5773 12 17 16
-3.73699 -49.6012 24.5978 12 18 17
-3.73693 -49.6012 24.6183 14 19 18
-3.73688 -49.6012 24.6389 15 21 20
-3.73683 -49.6012 24.6594 17 24 21
-3.73677 -49.6012 24.6799 19 26 23
-3.73672 -49.6012 24.7004 21 28 26
-3.73667 -49.6012 24.721 24 31 28
-3.88608 -51.5852 25.7311 26 34 30
-3.88602 -51.5852 25.7525 29 37 32
-3.88597 -51.5852 25.7738 31 39 34
-3.88591 -51.5852 25.7952 34 42 37
-3.7364 -49.6012 24.8236 37 45 39
-3.73635 -49.6012 24.8441 40 48 41
-3.73629 -49.6012 24.8646 43 51 44
-3.73624 -49.6012 24.8852 46 54 46
-3.73619 -49.6012 24.9057 48 57 48
-3.73613 -49.6012 24.9262 51 59 50
-3.73608 -49.6012 24.9467 54 62 52
-3.73603 -49.6012 24.9673 56 64 53
-3.73597 -49.6012 24.9878 58 66 55
-3.73592 -49.6012 25.0083 60 68 56
-3.73587 -49.6012 25.0288 62 70 57
-3.73581 -49.6012 25.0494 64 71 59
-3.73576 -49.6012 25.0699 66 73 59
-3.73571 -49.6012 25.0904 67 73 60
-3.73565 -49.6012 25.1109 68 73 59
-3.7356 -49.6012 25.1315 68 73 59
-3.73555 -49.6012 25.152 68 73 58
-3.73549 -49.6012 25.1725 68 72 58
-3.73544 -49.6012 25.193 68 72 58
-3.73539 -49.6012 25.2136 68 72 57
-3.73533 -49.6012 25.2341 68 72 57
-3.73528 -49.6012 25.2546 68 72 57
-3.73523 -49.6012 25.2751 68 72 57
-3.73517 -49.6012 25.2956 68 72 57
-3.73512 -49.6012 25.3162 68 72 57
-3.73507 -49.6012 25.3367 68 71 57
-3.73502 -49.6012 25.3572 68 71 56
-3.73496 -49.6012 25.3777 68 71 56
-3.73491 -49.6012 25.3983 68 71 56
-3.73486 -49.6012 25.4188 68 71 56
-3.7348 -49.6012 25.4393 68 71 56
-3.73475 -49.6012 25.4598 68 71 56
-3.7347 -49.6012 25.4804 68 70 55
-3.73464 -49.6012 25.5009 68 70 55
-3.73459 -49.6012 25.5214 68 70 55
-3.73454 -49.6012 25.5419 68 70 55
-3.73448 -49.6012 25.5625 68 69 54
-3.73443 -49.6012 25.583 68 69 54
-3.73438 -49.6012 25.6035 67 68 53
-3.73432 -49.6012 25.624 67 67 52
-3.73427 -49.6012 25.6446 66 66 51
-3.73422 -49.6012 25.6651 65 65 50
-3.73416 -49.6012 25.6856 63 63 49
-3.73411 -49.6012 25.7061 62 61 48
-3.59576 -47.7641 24.7738 60 60 46
-3.59571 -47.7641 24.7936 59 58 45
-4.20606 -56.0645 26.2517 102 118 105
-4.206 -56.0645 26.2749 101 117 104
-3.86946 -51.5793 24.1942 100 117 103
-3.86941 -51.5793 24.2156 100 116 103
-3.86935 -51.5793 24.2369 99 116 102
-3.8693 -51.5793 24.2583 99 116 102
-3.86924 -51.5793 24.2796 99 115 101
-3.86919 -51.5793 24.3009 98 115 101
-3.86913 -51.5793 24.3223 98 114 100
-3.86908 -51.5793 24.3436 98 114 100
-3.86902 -51.5793 24.365 97 114 100
-3.86896 -51.5793 24.3863 97 113 100
-3.86891 -51.5793 24.4077 97 113 100
-3.86885 -51.5793 24.429 97 113 100
-3.8688 -51.5793 24.4504 97 113 100
-3.86874 -51.5793 24.4717 97 113 99
-3.86869 -51.5793 24.4931 97 113 99
-3.86863 -51.5793 24.5144 97 112 99
-3.86858 -51.5793 24.5357 96 112 99
-3.86852 -51.5793 24.5571 96 112 99
-3.86847 -51.5793 24.5784 96 112 99
-3.86841 -51.5793 24.5998 96 112 98
-3.86836 -51.5793 24.6211 96 111 98
-3.8683 -51.5793 24.6425 95 111 98
-3.86824 -51.5793 24.6638 94 110 97
-3.86819 -51.5793 24.6852 93 108 96
-3.86813 -51.5793 24.7065 92 106 94
-3.86808 -51.5793 24.7279 89 104 92
-3.86802 -51.5793 24.7492 87 101 89
-3.86797 -51.5793 24.7705 84 97 86
-3.86791 -51.5793 24.7919 81 94 83
-3.86786 -51.5793 24.8132 78 90 80
-3.8678 -51.5793 24.8346 74 86 76
-3.86775 -51.5793 24.8559 71 82 73
-3.8294 -51.0686 24.631 67 78 69
-3.82934 -51.0686 24.6521 63 74 65
-3.71883 -49.5955 23.9615 59 69 62
-3.71877 -49.5955 23.982 55 65 58
-3.71872 -49.5955 24.0026 51 60 54
-3.71867 -49.5955 24.0231 47 56 50
-3.71861 -49.5955 24.0436 43 52 46
-3.71856 -49.5955 24.0641 40 47 43
-3.71851 -49.5955 24.0847 36 43 39
-3.71845 -49.5955 24.1052 32 40 36
-3.7184 -49.5955 24.1257 29 36 33
-3.71835 -49.5955 24.1462 26 33 30
-3.71829 -49.5955 24.1668 23 29 27
-3.71824 -49.5955 24.1873 20 26 24
-3.75429 -50.077 24.4428 18 24 22
-3.75423 -50.077 24.4636 16 22 20
-3.8668 -51.5793 25.2188 15 20 19
-3.86675 -51.5793 25.2401 14 19 18
-3.86669 -51.5793 25.2615 13 19 18
-3.86664 -51.5793 25.2828 13 19 17
-3.71787 -49.5955 24.3309 13 19 17
-3.71782 -49.5955 24.3515 13 19 17
-3.71776 -49.5955 24.372 13 18 17
-3.71771 -49.5955 24.3925 13 18 17
-3.71766 -49.5955 24.413 12 18 16
-3.7176 -49.5955 24.4336 12 17 16
-3.71755 -49.5955 24.4541 12 17 16
-3.7175 -49.5955 24.4746 12 17 16
-3.71744 -49.5955 24.4951 12 17 16
-3.71739 -49.5955 24.5157 12 16 15
-3.71734 -49.5955 24.5362 11 16 15
-3.71728 -49.5955 24.5567 11 16 15
-3.71723 -49.5955 24.5772 12 17 16
-3.71718 -49.5955 24.5978 12 18 17
-3.71712 -49.5955 24.6183 14 19 18
-3.71707 -49.5955 24.6388 15 21 20
-3.71702 -49.5955 24.6593 17 24 21
-3.71696 -49.5955 24.6799 19 26 23
-3.71691 -49.5955 24.7004 21 28 26
-3.71686 -49.5955 24.7209 24 31 28
-3.86548 -51.5793 25.7311 26 34 30
-3.86542 -51.5793 25.7524 29 37 32
-3.86537 -51.5793 25.7738 31 40 35
-3.86531 -51.5793 25.7951 34 43 37
-3.71659 -49.5955 24.8235 37 46 39
-3.71654 -49.5955 24.8441 40 49 42
-3.71648 -49.5955 24.8646 43 52 44
-3.71643 -49.5955 24.8851 46 55 46
-3.71638 -49.5955 24.9056 49 57 49
-3.71632 -49.5955 24.9262 51 60 51
-3.71627 -49.5955 24.9467 54 63 52
-3.71622 -49.5955 24.9672 56 65 54
-3.71616 -49.5955 24.9877 59 67 56
-3.71611 -49.5955 25.0083 61 69 57
-3.71606 -49.5955 25.0288 63 71 59
-3.716 -49.5955 25.0493 65 72 60
-3.71595 -49.5955 25.0698 66 74 60
-3.7159 -49.5955 25.0904 67 74 61
-3.71585 -49.5955 25.1109 68 74 61
-3.71579 -49.5955 25.1314 68 74 60
-3.71574 -49.5955 25.1519 68 74 60
-3.71569 -49.5955 25.1725 68 74 59
-3.71563 -49.5955 25.193 68 73 59
-3.71558 -49.5955 25.2135 68 73 59
-3.71553 -49.5955 25.234 68 73 58
-3.71547 -49.5955 25.2545 68 73 58
-3.71542 -49.5955 25.2751 68 73 58
-3.71537 -49.5955 25.2956 68 73 58
-3.71531 -49.5955 25.3161 68 73 58
-3.71526 -49.5955 25.3366 68 73 58
-3.71521 -49.5955 25.3572 68 72 58
-3.71515 -49.5955 25.3777 68 72 58
-3.7151 -49.5955 25.3982 68 72 57
-3.71505 -49.5955 25.4187 68 72 57
-3.71499 -49.5955 25.4393 68 72 57
-3.71494 -49.5955 25.4598 68 72 57
-3.71489 -49.5955 25.4803 68 72 57
-3.71483 -49.5955 25.5008 68 71 56
-3.71478 -49.5955 25.5214 68 71 56
-3.71473 -49.5955 25.5419 68 71 56
-3.71467 -49.5955 25.5624 68 71 56
-3.71462 -49.5955 25.5829 68 70 55
-3.71457 -49.5955 25.6035 68 70 55
-3.71451 -49.5955 25.624 67 69 54
-3.71446 -49.5955 25.6445 66 67 53
-3.71441 -49.5955 25.665 65 66 52
-3.71435 -49.5955 25.6856 63 64 50
-3.7143 -49.5955 25.7061 62 62 49
-3.57668 -47.7586 24.7738 60 61 48
-3.57663 -47.7586 24.7935 59 59 46
-3.47992 -46.4679 24.1427 57 58 45
-3.47987 -46.4679 24.1619 56 56 44
-4.18367 -56.058 26.2516 102 119 106
-4.18361 -56.058 26.2748 101 118 105
-3.84886 -51.5734 24.1942 101 117 104
-3.84881 -51.5734 24.2155 100 117 103
-3.84875 -51.5734 24.2369 100 116 103
-3.8487 -51.5734 24.2582 99 116 102
-3.84864 -51.5734 24.2795 99 115 102
-3.84859 -51.5734 24.3009 98 115 101
-3.84853 -51.5734 24.3222 98 114 100
-3.84847 -51.5734 24.3436 98 114 100
-3.84842 -51.5734 24.3649 98 114 100
-3.84836 -51.5734 24.3863 97 113 100
-3.84831 -51.5734 24.4076 97 113 100
-3.84825 -51.5734 24.429 97 113 100
-3.8482 -51.5734 24.4503 97 113 100
-3.84814 -51.5734 24.4717 97 113 99
-3.84809 -51.5734 24.493 97 113 99
-3.84803 -51.5734 24.5143 97 112 99
-3.84798 -51.5734 24.5357 96 112 99
-3.84792 -51.5734 24.557 96 112 99
-3.84787 -51.5734 24.5784 96 112 99
-3.84781 -51.5734 24.5997 96 111 98
-3.84775 -51.5734 24.6211 96 111 98
-3.8477 -51.5734 24.6424 95 111 98
-3.84764 -51.5734 24.6638 94 110 97
-3.84759 -51.5734 24.6851 93 108 96
-3.84753 -51.5734 24.7065 92 106 94
-3.84748 -51.5734 24.7278 89 104 92
-3.84742 -51.5734 24.7491 87 101 89
-3.84737 -51.5734 24.7705 84 97 86
-3.84731 -51.5734 24.7918 81 94 83
-3.84726 -51.5734 24.8132 77 90 80
-3.8472 -51.5734 24.8345 74 86 76
-3.84715 -51.5734 24.8559 70 82 73
-3.73504 -50.0713 24.1526 67 78 69
-3.73498 -50.0713 24.1734 63 74 65
-3.69902 -49.5898 23.9615 59 69 62
-3.69897 -49.5898 23.982 55 65 58
-3.69891 -49.5898 24.0025 51 60 54
-3.69886 -49.5898 24.023 47 56 50
-3.69881 -49.5898 24.0436 43 52 46
-3.69875 -49.5898 24.0641 39 47 43
-3.6987 -49.5898 24.0846 36 43 39
-3.69865 -49.5898 24.1051 32 40 36
-3.69859 -49.5898 24.1257 29 36 33
-3.69854 -49.5898 24.1462 26 32 29
-3.69849 -49.5898 24.1667 23 29 27
-3.69843 -49.5898 24.1872 20 26 24
-3.80823 -51.0628 24.9268 18 24 22
-3.80818 -51.0628 24.9479 16 22 20
-3.8462 -51.5734 25.2187 15 20 19
-3.84615 -51.5734 25.2401 14 19 18
-3.84609 -51.5734 25.2614 13 19 18
-3.84604 -51.5734 25.2828 13 19 17
-3.69806 -49.5898 24.3309 13 19 17
-3.69801 -49.5898 24.3514 13 19 17
-3.69795 -49.5898 24.3719 13 18 17
-3.6979 -49.5898 24.3925 13 18 17
-3.69785 -49.5898 24.413 12 18 16
-3.69779 -49.5898 24.4335 12 17 16
-3.69774 -49.5898 24.454 12 17 16
-3.69769 -49.5898 24.4746 12 17 16
-3.69763 -49.5898 24.4951 12 17 15
-3.69758 -49.5898 24.5156 12 16 15
-3.69753 -49.5898 24.5361 11 16 15
-3.69747 -49.5898 24.5567 11 16 15
-3.69742 -49.5898 24.5772 12 17 16
-3.69737 -49.5898 24.5977 12 18 17
-3.69731 -49.5898 24.6182 14 19 18
-3.69726 -49.5898 24.6388 15 21 20
-3.69721 -49.5898 24.6593 17 24 21
-3.69715 -49.5898 24.6798 19 26 23
-3.6971 -49.5898 24.7003 21 28 26
-3.69705 -49.5898 24.7209 24 31 28
-3.84487 -51.5734 25.731 26 34 30
-3.84482 -51.5734 25.7524 29 37 32
-3.84476 -51.5734 25.7737 31 40 35
-3.84471 -51.5734 25.7951 34 43 37
-3.69678 -49.5898 24.8235 37 46 40
-3.69673 -49.5898 24.844 40 49 42
-3.69668 -49.5898 24.8645 43 52 45
-3.69662 -49.5898 24.8851 46 55 47
-3.69657 -49.5898 24.9056 49 58 49
-3.69652 -49.5898 24.9261 51 61 51
-3.69646 -49.5898 24.9466 54 63 53
-3.69641 -49.5898 24.9672 56 66 55
-3.69636 -49.5898 24.9877 59 68 57
-3.6963 -49.5898 25.0082 61 70 58
-3.69625 -49.5898 25.0287 63 72 59
-3.6962 -49.5898 25.0493 65 73 61
-3.69614 -49.5898 25.0698 66 75 62
-3.69609 -49.5898 25.0903 68 75 62
-3.69604 -49.5898 25.1108 68 75 62
-3.69598 -49.5898 25.1314 68 75 62
-3.69593 -49.5898 25.1519 69 75 61
-3.69588 -49.5898 25.1724 69 75 61
-3.69582 -49.5898 25.1929 69 74 60
-3.69577 -49.5898 25.2134 69 74 60
-3.69572 -49.5898 25.234 69 74 60
-3.69566 -49.5898 25.2545 69 74 60
-3.69561 -49.5898 25.275 69 74 60
-3.69556 -49.5898 25.2955 69 74 60
-3.6955 -49.5898 25.3161 69 74 59
-3.69545 -49.5898 25.3366 69 74 59
-3.6954 -49.5898 25.3571 69 74 59
-3.69534 -49.5898 25.3776 69 73 59
-3.69529 -49.5898 25.3982 69 73 59
-3.69524 -49.5898 25.4187 69 73 59
-3.69518 -49.5898 25.4392 69 73 58
-3.69513 -49.5898 25.4597 69 73 58
-3.69508 -49.5898 25.4803 69 73 58
-3.69502 -49.5898 25.5008 69 72 58
-3.69497 -49.5898 25.5213 69 72 58
-3.69492 -49.5898 25.5418 69 72 57
-3.69486 -49.5898 25.5624 68 72 57
-3.69481 -49.5898 25.5829 68 71 57
-3.69476 -49.5898 25.6034 68 71 56
-3.6947 -49.5898 25.6239 67 70 55
-3.69465 -49.5898 25.6445 66 68 54
-3.6946 -49.5898 25.665 65 67 53
-3.69455 -49.5898 25.6855 64 65 52
-3.69449 -49.5898 25.706 62 63 50
-3.55761 -47.7531 24.7737 60 62 49
-3.55756 -47.7531 24.7935 59 60 48
-3.52487 -47.315 24.5856 57 59 46
-3.52482 -47.315 24.6052 55 57 45
-4.16127 -56.0516 26.2515 102 119 106
-4.16121 -56.0516 26.2747 102 118 105
-3.82826 -51.5675 24.1941 101 118 104
-3.82821 -51.5675 24.2155 100 117 103
-3.82815 -51.5675 24.2368 100 116 103
-3.82809 -51.5675 24.2582 99 116 102
-3.82804 -51.5675 24.2795 99 115 102
-3.82798 -51.5675 24.3008 99 115 101
-3.82793 -51.5675 24.3222 98 114 100
-3.82787 -51.5675 24.3435 98 114 100
-3.82782 -51.5675 24.3649 98 114 100
-3.82776 -51.5675 24.3862 98 114 100
-3.82771 -51.5675 24.4076 97 113 100
-3.82765 -51.5675 24.4289 97 113 100
-3.8276 -51.5675 24.4503 97 113 100
-3.82754 -51.5675 24.4716 97 113 99
-3.82749 -51.5675 24.493 97 113 99
-3.82743 -51.5675 24.5143 97 112 99
-3.82737 -51.5675 24.5356 96 112 99
-3.82732 -51.5675 24.557 96 112 99
-3.82726 -51.5675 24.5783 96 112 99
-3.82721 -51.5675 24.5997 96 111 98
-3.78926 -51.0569 24.3773 95 111 98
-3.78921 -51.0569 24.3984 95 111 98
-3.78915 -51.0569 24.4195 94 110 97
-3.7891 -51.0569 24.4407 93 108 96
-3.78904 -51.0569 24.4618 92 106 94
-3.78899 -51.0569 24.4829 89 104 91
-3.82682 -51.5675 24.7491 87 101 89
-3.82677 -51.5675 24.7704 84 97 86
-3.82671 -51.5675 24.7918 81 94 83
-3.82665 -51.5675 24.8131 77 90 80
-3.8266 -51.5675 24.8345 74 86 76
-3.82654 -51.5675 24.8558 70 82 73
-3.67932 -49.5841 23.9204 67 78 69
-3.67926 -49.5841 23.9409 63 74 65
-3.67921 -49.5841 23.9614 59 69 61
-3.67916 -49.5841 23.9819 55 65 58
-3.6791 -49.5841 24.0025 51 60 54
-3.67905 -49.5841 24.023 47 56 50
-3.679 -49.5841 24.0435 43 51 46
-3.67894 -49.5841 24.064 39 47 42
-3.67889 -49.5841 24.0846 36 43 39
-3.67884 -49.5841 24.1051 32 40 36
-3.67878 -49.5841 24.1256 29 36 32
-3.67873 -49.5841 24.1461 26 32 29
-3.67868 -49.5841 24.1666 23 29 27
-3.67862 -49.5841 24.1872 20 26 24
-3.82571 -51.5675 25.176 18 24 22
-3.82566 -51.5675 25.1974 16 22 20
-3.8256 -51.5675 25.2187 15 20 19
-3.82555 -51.5675 25.24 14 19 18
-3.82549 -51.5675 25.2614 13 19 18
-3.82544 -51.5675 25.2827 13 19 17
-3.67825 -49.5841 24.3308 13 19 17
-3.6782 -49.5841 24.3514 13 18 17
-3.67814 -49.5841 24.3719 13 18 17
-3.67809 -49.5841 24.3924 13 18 17
-3.67804 -49.5841 24.4129 12 18 16
-3.67798 -49.5841 24.4335 12 17 16
-3.67793 -49.5841 24.454 12 17 16
-3.67788 -49.5841 24.4745 12 17 16
-3.67782 -49.5841 24.495 12 17 15
-3.67777 -49.5841 24.5156 12 16 15
-3.67772 -49.5841 24.5361 11 16 15
-3.67766 -49.5841 24.5566 11 16 15
-3.67761 -49.5841 24.5771 12 17 16
-3.67756 -49.5841 24.5977 12 18 17
-3.67751 -49.5841 24.6182 14 19 18
-3.67745 -49.5841 24.6387 15 21 20
-3.6774 -49.5841 24.6592 17 24 21
-3.67735 -49.5841 24.6798 19 26 23
-3.67729 -49.5841 24.7003 21 29 26
-3.67724 -49.5841 24.7208 24 31 28
-3.82427 -51.5675 25.731 26 34 30
-3.82422 -51.5675 25.7523 29 37 33
-3.82416 -51.5675 25.7737 31 40 35
-3.82411 -51.5675 25.795 34 43 37
-3.67697 -49.5841 24.8234 37 46 40
-3.67692 -49.5841 24.844 40 49 42
-3.67687 -49.5841 24.8645 43 52 45
-3.67681 -49.5841 24.885 46 55 47
-3.67676 -49.5841 24.9055 49 58 50
-3.67671 -49.5841 24.9261 52 61 52
-3.67665 -49.5841 24.9466 54 64 54
-3.6766 -49.5841 24.9671 57 66 56
-3.67655 -49.5841 24.9876 59 68 57
-3.67649 -49.5841 25.0082 61 71 59
-3.67644 -49.5841 25.0287 63 72 60
-3.67639 -49.5841 25.0492 65 74 62
-3.67633 -49.5841 25.0697 67 76 63
-3.67628 -49.5841 25.0903 68 76 63
-3.67623 -49.5841 25.1108 69 77 63
-3.67617 -49.5841 25.1313 69 76 63
-3.67612 -49.5841 25.1518 69 76 62
-3.67607 -49.5841 25.1723 69 76 62
-3.67601 -49.5841 25.1929 69 76 62
-3.67596 -49.5841 25.2134 69 75 61
-3.67591 -49.5841 25.2339 69 75 61
-3.67585 -49.5841 25.2544 69 75 61
-3.6758 -49.5841 25.275 69 75 61
-3.67575 -49.5841 25.2955 69 75 61
-3.67569 -49.5841 25.316 69 75 61
-3.67564 -49.5841 25.3365 69 75 61
-3.67559 -49.5841 25.3571 69 75 60
-3.67553 -49.5841 25.3776 69 75 60
-3.67548 -49.5841 25.3981 69 74 60
-3.67543 -49.5841 25.4186 69 74 60
-3.67538 -49.5841 25.4392 69 74 60
-3.67532 -49.5841 25.4597 69 74 60
-3.67527 -49.5841 25.4802 69 74 59
-3.67522 -49.5841 25.5007 69 74 59
-3.67516 -49.5841 25.5213 69 73 59
-3.67511 -49.5841 25.5418 69 73 59
-3.67506 -49.5841 25.5623 69 73 58
-3.675 -49.5841 25.5828 68 72 58
-3.67495 -49.5841 25.6034 68 72 57
-3.6749 -49.5841 25.6239 67 71 57
-3.67484 -49.5841 25.6444 66 69 55
-3.67479 -49.5841 25.6649 65 68 54
-3.67474 -49.5841 25.6855 64 66 53
-3.67468 -49.5841 25.706 62 64 51
-3.53853 -47.7477 24.7737 60 63 50
-3.53848 -47.7477 24.7934 59 61 49
-3.53843 -47.7477 24.8132 57 59 47
-3.53838 -47.7477 24.833 56 58 46
-4.13888 -56.0452 26.2515 103 119 106
-4.13882 -56.0452 26.2747 102 118 105
-3.80766 -51.5616 24.1941 101 118 104
-3.8076 -51.5616 24.2154 100 117 103
-3.80755 -51.5616 24.2368 100 117 103
-3.80749 -51.5616 24.2581 100 116 102
-3.80744 -51.5616 24.2794 99 115 102
-3.80738 -51.5616 24.3008 99 115 101
-3.80733 -51.5616 24.3221 98 114 101
-3.80727 -51.5616 24.3435 98 114 100
-3.80722 -51.5616 24.3648 98 114 100
-3.80716 -51.5616 24.3862 98 114 100
-3.80711 -51.5616 24.4075 98 113 100
-3.80705 -51.5616 24.4289 97 113 100
-3.80699 -51.5616 24.4502 97 113 100
