ply
format ascii 1.0
comment author : Loiseau & Broux
comment object : 3d point Cloud
element vertex 1365
property float x
property float y
property float z
property uchar red
property uchar green
property uchar blue
end_header
-2.89181 -47.1197 6.3325 99 122 120
-2.89176 -47.1197 6.35209 98 122 119
-2.81425 -45.8576 6.201 98 121 119
-2.8142 -45.8576 6.22006 97 120 118
-2.81415 -45.8576 6.23912 96 118 117
-2.8141 -45.8576 6.25818 94 116 115
-2.81405 -45.8576 6.27723 92 114 113
-2.81401 -45.8576 6.29629 90 111 111
-2.81396 -45.8576 6.31535 88 109 108
-2.81391 -45.8576 6.33441 85 106 105
-2.81386 -45.8576 6.35347 83 103 102
-2.81381 -45.8576 6.37253 80 99 99
-2.81376 -45.8576 6.39158 77 96 95
-2.81371 -45.8576 6.41064 74 92 91
-2.81366 -45.8576 6.4297 71 89 87
-2.81361 -45.8576 6.44876 68 85 84
-2.81356 -45.8576 6.46782 66 82 80
-2.81351 -45.8576 6.48688 63 79 76
-2.81346 -45.8576 6.50594 61 76 73
-2.81341 -45.8576 6.52499 58 72 69
-2.81336 -45.8576 6.54405 56 69 66
-2.81331 -45.8576 6.56311 54 67 63
-2.81326 -45.8576 6.58217 52 64 60
-2.81321 -45.8576 6.60123 50 62 58
-2.73978 -44.6613 6.44758 49 60 56
-2.73973 -44.6613 6.46614 48 58 54
-2.73968 -44.6613 6.48471 48 57 52
-2.73963 -44.6613 6.50327 47 56 50
-2.81297 -45.8576 6.69652 46 55 49
-2.81292 -45.8576 6.71558 46 55 49
-2.81287 -45.8576 6.73464 48 57 50
-2.81282 -45.8576 6.7537 50 59 52
-2.81277 -45.8576 6.77275 53 61 54
-2.81272 -45.8576 6.79181 56 64 57
-2.92733 -47.9949 6.17153 96 114 105
-2.92728 -47.9949 6.19148 95 113 104
-2.90013 -47.5505 6.15392 94 113 104
-2.90008 -47.5505 6.17368 93 112 105
-2.90002 -47.5505 6.19345 93 112 105
-2.89997 -47.5505 6.21321 92 112 106
-2.89992 -47.5505 6.23297 92 112 106
-2.89987 -47.5505 6.25274 92 112 107
-2.89982 -47.5505 6.2725 92 113 108
-2.89977 -47.5505 6.29227 92 113 109
-2.89972 -47.5505 6.31203 92 113 109
-2.89966 -47.5505 6.3318 93 114 110
-2.89961 -47.5505 6.35156 93 114 111
-2.89956 -47.5505 6.37132 92 114 111
-2.89951 -47.5505 6.39109 92 114 111
-2.89946 -47.5505 6.41085 91 114 111
-2.82105 -46.2654 6.25682 90 113 110
-2.821 -46.2654 6.27605 89 112 109
-2.79576 -45.8523 6.23907 88 110 108
-2.79571 -45.8523 6.25813 87 108 107
-2.79566 -45.8523 6.27719 85 106 105
-2.79561 -45.8523 6.29624 83 104 102
-2.79556 -45.8523 6.3153 81 101 100
-2.79551 -45.8523 6.33436 79 99 97
-2.79546 -45.8523 6.35342 77 96 95
-2.79541 -45.8523 6.37248 74 93 91
-2.79536 -45.8523 6.39154 71 90 88
-2.79531 -45.8523 6.4106 69 87 85
-2.79526 -45.8523 6.42965 66 83 81
-2.79522 -45.8523 6.44871 64 80 78
-2.79517 -45.8523 6.46777 62 78 75
-2.79512 -45.8523 6.48683 60 75 72
-2.79507 -45.8523 6.50589 58 72 69
-2.79502 -45.8523 6.52495 56 69 66
-2.77023 -45.4465 6.48609 54 67 63
-2.77018 -45.4465 6.50498 52 64 60
-2.77014 -45.4465 6.52387 50 62 58
-2.77009 -45.4465 6.54276 49 60 56
-2.6984 -44.2712 6.39195 48 59 54
-2.69835 -44.2712 6.41036 48 58 52
-2.6983 -44.2712 6.42876 47 57 51
-2.69826 -44.2712 6.44716 46 56 49
-2.76984 -45.4465 6.63721 46 55 49
-2.76979 -45.4465 6.6561 46 55 49
-2.79447 -45.8523 6.73459 48 57 50
-2.79442 -45.8523 6.75365 50 59 52
-2.79437 -45.8523 6.77271 53 62 54
-2.79433 -45.8523 6.79176 56 65 57
-2.96347 -48.9035 6.28903 96 114 104
-2.96342 -48.9035 6.30936 95 112 103
-2.88105 -47.545 6.15387 93 111 102
-2.881 -47.545 6.17363 92 110 102
-2.88095 -47.545 6.1934 90 109 101
-2.8809 -47.545 6.21316 90 109 102
-2.88085 -47.545 6.23293 89 108 102
-2.88079 -47.545 6.25269 88 108 102
-2.88074 -47.545 6.27245 88 108 102
-2.88069 -47.545 6.29222 87 107 102
-2.88064 -47.545 6.31198 87 107 103
-2.88059 -47.545 6.33175 87 107 103
-2.88054 -47.545 6.35151 86 107 103
-2.88049 -47.545 6.37128 86 107 103
-2.88044 -47.545 6.39104 85 107 103
-2.88038 -47.545 6.4108 84 106 103
-2.85391 -47.1088 6.37157 83 105 102
-2.85386 -47.1088 6.39116 82 104 101
-2.77737 -45.847 6.23902 81 102 100
-2.77732 -45.847 6.25808 80 101 98
-2.77727 -45.847 6.27714 78 99 97
-2.77722 -45.847 6.2962 77 96 94
-2.77717 -45.847 6.31526 75 94 92
-2.77712 -45.847 6.33431 73 92 90
-2.77707 -45.847 6.35337 71 89 87
-2.77702 -45.847 6.37243 69 87 85
-2.77697 -45.847 6.39149 66 84 82
-2.77692 -45.847 6.41055 64 81 79
-2.77687 -45.847 6.42961 62 78 76
-2.77682 -45.847 6.44866 60 76 73
-2.77677 -45.847 6.46772 58 73 70
-2.77672 -45.847 6.48678 57 71 67
-2.77667 -45.847 6.50584 55 69 65
-2.77662 -45.847 6.5249 53 67 62
-2.70414 -44.651 6.37325 52 64 60
-2.70409 -44.651 6.39181 50 62 58
-2.70405 -44.651 6.41037 49 61 56
-2.704 -44.651 6.42893 48 59 54
-2.68064 -44.2661 6.39191 47 58 52
-2.68059 -44.2661 6.41031 47 57 51
-2.68054 -44.2661 6.42871 46 56 50
-2.6805 -44.2661 6.44711 46 55 49
-2.70376 -44.651 6.52174 46 55 48
-2.70371 -44.651 6.5403 46 55 48
-2.77608 -45.847 6.73454 48 57 50
-2.77603 -45.847 6.7536 51 59 52
-2.77598 -45.847 6.77266 53 62 55
-2.77593 -45.847 6.79172 57 65 58
-2.86187 -47.5396 6.19335 89 107 99
-2.86182 -47.5396 6.21311 87 106 98
-2.86177 -47.5396 6.23288 86 105 98
-2.86172 -47.5396 6.25264 85 104 97
-2.86167 -47.5396 6.2724 84 103 97
-2.86162 -47.5396 6.29217 83 102 97
-2.86157 -47.5396 6.31193 82 102 97
-2.86151 -47.5396 6.3317 82 101 97
-2.86146 -47.5396 6.35146 81 101 96
-2.86141 -47.5396 6.37123 80 100 96
-2.86136 -47.5396 6.39099 79 100 96
-2.86131 -47.5396 6.41075 78 98 95
-2.86126 -47.5396 6.43052 77 97 94
-2.86121 -47.5396 6.45028 76 96 93
-2.75897 -45.8417 6.23897 75 95 92
-2.75892 -45.8417 6.25803 74 93 91
-2.75887 -45.8417 6.27709 72 91 89
-2.75882 -45.8417 6.29615 71 89 87
-2.75877 -45.8417 6.31521 69 87 85
-2.75872 -45.8417 6.33427 67 85 83
-2.75867 -45.8417 6.35333 65 83 81
-2.75863 -45.8417 6.37238 63 81 78
-2.75858 -45.8417 6.39144 62 78 76
-2.75853 -45.8417 6.4105 60 76 73
-2.75848 -45.8417 6.42956 58 74 71
-2.75843 -45.8417 6.44862 56 72 68
-2.75838 -45.8417 6.46768 55 70 66
-2.75833 -45.8417 6.48673 54 68 63
-2.73387 -45.436 6.44822 53 66 61
-2.73382 -45.436 6.46711 51 64 59
-2.66307 -44.261 6.31826 50 62 57
-2.66302 -44.261 6.33666 49 61 55
-2.66297 -44.261 6.35506 48 59 54
-2.66293 -44.261 6.37346 47 58 52
-2.66288 -44.261 6.39186 47 57 51
-2.66283 -44.261 6.41026 46 57 50
-2.66278 -44.261 6.42867 46 56 49
-2.66274 -44.261 6.44707 46 55 48
-2.66269 -44.261 6.46547 46 55 48
-2.66264 -44.261 6.48387 46 55 48
-2.73328 -45.436 6.6749 48 57 50
-2.73323 -45.436 6.69379 51 60 52
-3.50966 -58.344 8.61969 54 63 55
-3.50959 -58.344 8.64394 57 66 58
-2.8428 -47.5341 6.1933 88 105 96
-2.84275 -47.5341 6.21306 86 103 95
-2.8427 -47.5341 6.23283 84 102 94
-2.84264 -47.5341 6.25259 82 100 93
-2.84259 -47.5341 6.27236 81 99 92
-2.84254 -47.5341 6.29212 79 98 92
-2.84249 -47.5341 6.31188 78 97 91
-2.84244 -47.5341 6.33165 77 96 91
-2.84239 -47.5341 6.35141 76 95 90
-2.84234 -47.5341 6.37118 75 94 89
-2.84229 -47.5341 6.39094 74 93 89
-2.84223 -47.5341 6.41071 73 92 88
-2.84218 -47.5341 6.43047 72 91 87
-2.84213 -47.5341 6.45023 70 89 86
-2.74058 -45.8364 6.23893 69 88 85
-2.74053 -45.8364 6.25799 68 87 83
-2.74048 -45.8364 6.27704 67 85 82
-2.74043 -45.8364 6.2961 65 83 80
-2.74038 -45.8364 6.31516 64 81 78
-2.74033 -45.8364 6.33422 62 79 76
-2.74028 -45.8364 6.35328 60 77 74
-2.74023 -45.8364 6.37234 59 75 72
-2.74018 -45.8364 6.39139 57 73 70
-2.74013 -45.8364 6.41045 56 71 68
-2.74008 -45.8364 6.42951 55 70 66
-2.74003 -45.8364 6.44857 53 68 64
-2.73998 -45.8364 6.46763 52 66 62
-2.73993 -45.8364 6.48669 51 65 60
-2.66841 -44.6407 6.33603 50 63 58
-2.66836 -44.6407 6.35459 49 62 56
-2.64531 -44.2559 6.31821 48 61 55
-2.64526 -44.2559 6.33661 48 59 53
-2.64522 -44.2559 6.35501 47 58 52
-2.64517 -44.2559 6.37342 47 57 51
-2.64512 -44.2559 6.39182 46 57 50
-2.64507 -44.2559 6.41022 46 56 49
-2.64502 -44.2559 6.42862 46 56 48
-2.64498 -44.2559 6.44702 46 55 48
-2.64493 -44.2559 6.46542 46 55 48
-2.64488 -44.2559 6.48382 47 56 48
-2.66783 -44.6407 6.55877 49 58 50
-2.66778 -44.6407 6.57733 51 60 52
-2.82372 -47.5286 6.19325 87 104 94
-2.82367 -47.5286 6.21301 84 102 93
-2.82362 -47.5286 6.23278 82 99 91
-2.82357 -47.5286 6.25254 80 97 90
-2.82352 -47.5286 6.27231 78 95 88
-2.82347 -47.5286 6.29207 76 93 87
-2.82342 -47.5286 6.31183 74 92 86
-2.82336 -47.5286 6.3316 73 91 85
-2.82331 -47.5286 6.35136 72 90 84
-2.82326 -47.5286 6.37113 70 88 83
-2.82321 -47.5286 6.39089 69 87 83
-2.82316 -47.5286 6.41066 68 85 81
-2.82311 -47.5286 6.43042 66 84 80
-2.82306 -47.5286 6.45019 65 83 79
-2.72218 -45.8312 6.23888 64 82 78
-2.72213 -45.8312 6.25794 63 80 77
-2.72208 -45.8312 6.277 61 78 75
-2.72203 -45.8312 6.29606 60 77 74
-2.72199 -45.8312 6.31511 58 75 72
-2.72194 -45.8312 6.33417 57 73 70
-2.72189 -45.8312 6.35323 56 72 69
-2.72184 -45.8312 6.37229 55 70 67
-2.72179 -45.8312 6.39135 53 69 65
-2.72174 -45.8312 6.41041 52 67 64
-2.72169 -45.8312 6.42946 51 66 62
-2.72164 -45.8312 6.44852 50 64 60
-2.72159 -45.8312 6.46758 50 63 59
-2.72154 -45.8312 6.48664 49 62 57
-2.6505 -44.6356 6.33598 48 61 56
-2.65045 -44.6356 6.35455 48 60 54
-2.62755 -44.2508 6.31817 47 59 53
-2.6275 -44.2508 6.33657 46 58 52
-2.62746 -44.2508 6.35497 46 57 51
-2.62741 -44.2508 6.37337 46 57 50
-2.62736 -44.2508 6.39177 46 56 49
-2.62731 -44.2508 6.41017 46 56 49
-2.62726 -44.2508 6.42857 46 56 48
-2.62722 -44.2508 6.44697 46 55 48
-2.62717 -44.2508 6.46538 46 55 48
-2.62712 -44.2508 6.48378 47 56 48
-2.62707 -44.2508 6.50218 49 58 50
-2.62703 -44.2508 6.52058 52 61 53
-2.80465 -47.5231 6.1932 87 103 93
-2.8046 -47.5231 6.21296 84 100 91
-2.80454 -47.5231 6.23273 82 98 89
-2.80449 -47.5231 6.25249 79 95 87
-2.80444 -47.5231 6.27226 77 92 85
-2.80439 -47.5231 6.29202 74 90 83
-2.80434 -47.5231 6.31179 72 88 82
-2.80429 -47.5231 6.33155 71 87 81
-2.80424 -47.5231 6.35131 69 85 80
-2.80419 -47.5231 6.37108 68 83 78
-2.80413 -47.5231 6.39084 66 82 77
-2.80408 -47.5231 6.41061 65 80 76
-2.80403 -47.5231 6.43037 63 79 75
-2.80398 -47.5231 6.45014 62 77 74
-2.70379 -45.8259 6.23883 61 76 72
-2.70374 -45.8259 6.25789 59 75 71
-2.70369 -45.8259 6.27695 58 73 70
-2.70364 -45.8259 6.29601 56 71 68
-2.70359 -45.8259 6.31507 55 70 67
-2.70354 -45.8259 6.33412 54 68 65
-2.70349 -45.8259 6.35318 53 67 64
-2.70344 -45.8259 6.37224 52 66 63
-2.70339 -45.8259 6.3913 51 65 61
-2.70334 -45.8259 6.41036 50 64 60
-2.70329 -45.8259 6.42942 49 63 58
-2.70325 -45.8259 6.44848 48 62 57
-2.7032 -45.8259 6.46753 48 61 56
-2.70315 -45.8259 6.48659 47 60 55
-2.67918 -45.4203 6.44808 47 59 54
-2.67913 -45.4203 6.46697 47 59 52
-2.60979 -44.2457 6.31812 46 58 51
-2.60974 -44.2457 6.33652 46 57 51
-2.6097 -44.2457 6.35492 45 57 50
-2.60965 -44.2457 6.37332 45 56 49
-2.6096 -44.2457 6.39173 45 56 49
-2.60955 -44.2457 6.41013 46 56 48
-2.6095 -44.2457 6.42853 46 56 48
-2.60946 -44.2457 6.44693 46 56 47
-2.60941 -44.2457 6.46533 46 56 47
-2.60936 -44.2457 6.48373 47 56 48
-2.60931 -44.2457 6.50213 50 59 51
-2.60927 -44.2457 6.52053 52 61 53
-2.78537 -47.5177 6.27221 75 90 83
-2.78532 -47.5177 6.29197 72 88 80
-2.78526 -47.5177 6.31174 70 85 79
-2.78521 -47.5177 6.3315 68 83 77
-2.78516 -47.5177 6.35127 66 81 76
-2.78511 -47.5177 6.37103 65 80 74
-2.78506 -47.5177 6.39079 63 78 73
-2.78501 -47.5177 6.41056 61 76 71
-2.78496 -47.5177 6.43032 59 74 70
-2.78491 -47.5177 6.45009 58 73 69
-2.70959 -46.2334 6.29499 57 71 67
-2.70954 -46.2334 6.31422 55 70 66
-2.70949 -46.2334 6.33345 54 68 64
-2.70944 -46.2334 6.35268 52 67 63
-2.6852 -45.8206 6.31502 51 65 62
-2.68515 -45.8206 6.33408 50 64 61
-2.70929 -46.2334 6.41037 49 63 60
-2.70924 -46.2334 6.4296 48 62 58
-2.685 -45.8206 6.39125 48 61 57
-2.68495 -45.8206 6.41031 47 61 56
-2.6849 -45.8206 6.42937 47 60 55
-2.68485 -45.8206 6.44843 46 59 54
-2.6848 -45.8206 6.46749 46 59 53
-2.68475 -45.8206 6.48654 46 58 52
-2.6847 -45.8206 6.5056 46 58 52
-2.68465 -45.8206 6.52466 46 58 51
-2.59203 -44.2406 6.31807 45 57 50
-2.59198 -44.2406 6.33648 45 57 49
-2.59194 -44.2406 6.35488 45 56 49
-2.59189 -44.2406 6.37328 45 56 48
-2.59184 -44.2406 6.39168 45 56 48
-2.59179 -44.2406 6.41008 45 56 48
-2.59174 -44.2406 6.42848 46 56 47
-2.5917 -44.2406 6.44688 46 56 47
-3.30364 -56.3946 8.24146 47 56 48
-3.30358 -56.3946 8.26492 48 57 49
-3.30352 -56.3946 8.28837 50 59 51
-3.30346 -56.3946 8.31183 53 62 54
-2.76629 -47.5122 6.27216 75 90 82
-2.76624 -47.5122 6.29192 72 87 79
-2.76619 -47.5122 6.31169 70 84 77
-2.76614 -47.5122 6.33145 68 81 75
-2.76609 -47.5122 6.35122 66 79 73
-2.76604 -47.5122 6.37098 64 77 72
-2.76598 -47.5122 6.39074 61 75 70
-2.76593 -47.5122 6.41051 59 73 68
-2.76588 -47.5122 6.43027 58 71 67
-2.76583 -47.5122 6.45004 56 70 66
-2.7404 -47.0763 6.41045 55 68 64
-2.74035 -47.0763 6.43003 53 67 63
-2.7403 -47.0763 6.44961 52 65 61
-2.74025 -47.0763 6.46919 50 63 60
-2.6668 -45.8153 6.31497 49 62 58
-2.66675 -45.8153 6.33403 48 61 57
-2.7401 -47.0763 6.52794 47 60 56
-2.74005 -47.0763 6.54753 46 59 55
-2.66661 -45.8153 6.3912 46 59 55
-2.66656 -45.8153 6.41026 45 58 54
-2.66651 -45.8153 6.42932 45 58 53
-2.66646 -45.8153 6.44838 45 57 52
-2.66641 -45.8153 6.46744 45 57 51
-2.66636 -45.8153 6.4865 45 57 51
-2.66631 -45.8153 6.50556 45 57 50
-2.66626 -45.8153 6.52461 45 57 50
-2.57427 -44.2355 6.31803 45 57 49
-2.57422 -44.2355 6.33643 45 56 49
-2.57418 -44.2355 6.35483 45 56 48
-2.57413 -44.2355 6.37323 45 56 48
-2.57408 -44.2355 6.39163 45 56 48
-2.57403 -44.2355 6.41003 46 56 48
-2.57399 -44.2355 6.42844 46 56 47
-2.57394 -44.2355 6.44684 46 56 47
-2.74722 -47.5067 6.27211 76 90 81
-2.74717 -47.5067 6.29187 73 87 78
-2.74711 -47.5067 6.31164 70 84 76
-2.74706 -47.5067 6.3314 68 81 74
-2.74701 -47.5067 6.35117 66 79 72
-2.74696 -47.5067 6.37093 63 76 70
-2.74691 -47.5067 6.3907 61 74 68
-2.74686 -47.5067 6.41046 59 72 66
-2.74681 -47.5067 6.43022 57 70 64
-2.74675 -47.5067 6.44999 55 68 63
-2.7467 -47.5067 6.46975 54 66 61
-2.74665 -47.5067 6.48952 52 65 60
-2.7466 -47.5067 6.50928 50 63 58
-2.74655 -47.5067 6.52905 49 61 57
-2.67227 -46.2227 6.37181 47 60 55
-2.67222 -46.2227 6.39105 46 59 54
-2.7464 -47.5067 6.58834 45 58 53
-2.74634 -47.5067 6.6081 45 58 53
-2.67207 -46.2227 6.44874 44 57 52
-2.67202 -46.2227 6.46797 44 57 51
-2.67197 -46.2227 6.4872 44 56 51
-2.67192 -46.2227 6.50643 43 56 50
-2.64801 -45.81 6.46739 44 56 50
-2.64796 -45.81 6.48645 44 56 49
-2.64791 -45.81 6.50551 44 56 49
-2.64787 -45.81 6.52457 44 56 49
-2.57874 -44.615 6.37292 44 56 48
-2.57869 -44.615 6.39148 44 56 48
-2.55642 -44.2304 6.35479 45 56 48
-2.55637 -44.2304 6.37319 45 56 48
-3.25861 -56.3816 8.14752 46 56 48
-3.25855 -56.3816 8.17098 46 57 48
-3.25849 -56.3816 8.19443 46 57 48
-3.25842 -56.3816 8.21789 47 57 48
-2.72814 -47.5012 6.27206 77 91 81
-2.72809 -47.5012 6.29182 73 87 78
-2.72804 -47.5012 6.31159 70 84 75
-2.72799 -47.5012 6.33135 67 81 73
-2.72794 -47.5012 6.35112 65 78 70
-2.72788 -47.5012 6.37088 62 76 68
-2.72783 -47.5012 6.39065 60 73 66
-2.72778 -47.5012 6.41041 57 70 64
-2.72773 -47.5012 6.43017 55 68 62
-2.72768 -47.5012 6.44994 54 67 60
-2.72763 -47.5012 6.4697 52 65 59
-2.72758 -47.5012 6.48947 50 63 57
-2.72753 -47.5012 6.50923 48 61 55
-2.72747 -47.5012 6.529 47 59 54
-2.7024 -47.0654 6.48868 45 58 53
-2.70235 -47.0654 6.50826 44 57 52
-2.72732 -47.5012 6.58829 44 56 51
-2.72727 -47.5012 6.60805 43 56 50
-2.7022 -47.0654 6.56701 43 56 50
-2.70215 -47.0654 6.5866 42 55 49
-2.7021 -47.0654 6.60618 42 55 49
-2.70205 -47.0654 6.62576 42 55 48
-2.62962 -45.8048 6.46734 43 55 48
-2.62957 -45.8048 6.4864 43 56 48
-2.62952 -45.8048 6.50546 44 56 48
-2.62947 -45.8048 6.52452 44 56 48
-2.60615 -45.3994 6.48567 44 56 48
-2.6061 -45.3994 6.50456 45 56 48
-2.53866 -44.2253 6.35474 45 56 48
-2.53861 -44.2253 6.37314 45 57 48
-2.70896 -47.4957 6.31154 70 84 75
-2.70891 -47.4957 6.3313 67 81 72
-2.70886 -47.4957 6.35107 64 78 69
-2.70881 -47.4957 6.37083 62 75 67
-2.70876 -47.4957 6.3906 59 72 64
-2.70871 -47.4957 6.41036 56 70 62
-2.70866 -47.4957 6.43013 54 67 60
-2.7086 -47.4957 6.44989 52 65 58
-2.70855 -47.4957 6.46965 50 63 57
-2.7085 -47.4957 6.48942 48 62 55
-2.70845 -47.4957 6.50918 47 60 53
-2.7084 -47.4957 6.52895 45 58 51
-2.70835 -47.4957 6.54871 44 56 50
-2.7083 -47.4957 6.56848 43 56 49
-2.70825 -47.4957 6.58824 42 55 49
-2.70819 -47.4957 6.608 42 55 48
-2.70814 -47.4957 6.62777 41 54 48
-2.70809 -47.4957 6.64753 41 54 48
-2.70804 -47.4957 6.6673 41 54 47
-2.70799 -47.4957 6.68706 42 54 47
-2.63475 -46.2121 6.52556 42 55 47
-2.6347 -46.2121 6.54479 43 55 47
-2.61113 -45.7995 6.50541 43 56 48
-2.61108 -45.7995 6.52447 44 56 48
-2.61103 -45.7995 6.54353 44 56 48
-2.61098 -45.7995 6.56259 45 56 48
-3.14434 -55.1564 7.92628 45 57 48
-3.14428 -55.1564 7.94924 46 57 48
-2.68989 -47.4903 6.31149 71 85 75
-2.68984 -47.4903 6.33125 68 81 71
-2.68979 -47.4903 6.35102 64 78 69
-2.68973 -47.4903 6.37078 61 75 66
-2.68968 -47.4903 6.39055 58 72 63
-2.68963 -47.4903 6.41031 55 69 61
-2.68958 -47.4903 6.43008 53 66 58
-2.68953 -47.4903 6.44984 51 64 57
-2.68948 -47.4903 6.4696 49 62 55
-2.68943 -47.4903 6.48937 47 60 53
-2.68938 -47.4903 6.50913 45 58 51
-2.68932 -47.4903 6.5289 43 57 50
-2.68927 -47.4903 6.54866 42 55 48
-2.68922 -47.4903 6.56843 41 54 48
-2.68917 -47.4903 6.58819 41 54 47
-2.68912 -47.4903 6.60796 40 53 47
-2.68907 -47.4903 6.62772 40 53 47
-2.68902 -47.4903 6.64748 40 53 46
-2.68896 -47.4903 6.66725 41 53 46
-2.68891 -47.4903 6.68701 41 54 46
-2.66419 -47.0546 6.64525 42 54 47
-2.66414 -47.0546 6.66483 43 55 47
-2.59273 -45.7942 6.50537 43 56 47
-2.59268 -45.7942 6.52442 44 56 48
-2.59263 -45.7942 6.54348 45 56 48
-2.59258 -45.7942 6.56254 45 57 48
-2.67081 -47.4848 6.31144 72 86 75
-2.67076 -47.4848 6.33121 68 82 71
-2.67071 -47.4848 6.35097 65 78 68
-2.67066 -47.4848 6.37073 61 75 65
-2.67061 -47.4848 6.3905 58 71 62
-2.67056 -47.4848 6.41026 55 68 59
-2.6705 -47.4848 6.43003 52 66 57
-2.67045 -47.4848 6.44979 50 63 55
-2.6704 -47.4848 6.46956 48 61 53
-2.67035 -47.4848 6.48932 46 59 51
-2.6703 -47.4848 6.50908 44 57 50
-2.67025 -47.4848 6.52885 42 55 48
-2.6702 -47.4848 6.54861 41 54 47
-2.67015 -47.4848 6.56838 40 53 46
-2.67009 -47.4848 6.58814 40 53 46
-2.67004 -47.4848 6.60791 40 52 46
-2.66999 -47.4848 6.62767 39 52 45
-2.66994 -47.4848 6.64743 40 52 45
-2.66989 -47.4848 6.6672 40 53 45
-2.66984 -47.4848 6.68696 41 53 46
-2.69474 -47.9286 6.76941 42 54 46
-2.69469 -47.9286 6.78936 43 55 47
-3.20362 -56.9818 8.09551 44 56 47
-3.20356 -56.9818 8.11922 44 56 48
-3.2035 -56.9818 8.14294 45 57 48
-3.20344 -56.9818 8.16666 46 57 48
-2.65174 -47.4793 6.31139 73 87 76
-2.65169 -47.4793 6.33116 69 83 72
-2.65163 -47.4793 6.35092 65 79 68
-2.65158 -47.4793 6.37068 62 75 65
-2.65153 -47.4793 6.39045 58 72 62
-2.65148 -47.4793 6.41021 55 68 59
-2.65143 -47.4793 6.42998 52 65 56
-2.65138 -47.4793 6.44974 50 63 54
-2.65133 -47.4793 6.46951 48 61 52
-2.65128 -47.4793 6.48927 46 59 50
-2.65122 -47.4793 6.50904 44 57 49
-2.65117 -47.4793 6.5288 42 55 47
-2.65112 -47.4793 6.54856 41 53 46
-2.65107 -47.4793 6.56833 40 53 45
-2.65102 -47.4793 6.58809 39 52 45
-2.65097 -47.4793 6.60786 39 52 45
-2.65092 -47.4793 6.62762 39 52 45
-2.65087 -47.4793 6.64739 39 52 45
-2.65081 -47.4793 6.66715 40 53 45
-2.65076 -47.4793 6.68691 41 53 46
-2.72645 -48.8359 6.8983 42 54 46
-2.72639 -48.8359 6.91863 43 55 47
-2.63256 -47.4738 6.35087 67 80 69
-2.63251 -47.4738 6.37064 63 76 65
-2.63246 -47.4738 6.3904 59 72 62
-2.63241 -47.4738 6.41016 56 69 59
-2.63235 -47.4738 6.42993 53 66 56
-2.6323 -47.4738 6.44969 50 63 54
-2.63225 -47.4738 6.46946 48 61 52
-2.6322 -47.4738 6.48922 46 59 50
-2.63215 -47.4738 6.50899 44 57 48
-2.6321 -47.4738 6.52875 42 55 47
-2.63205 -47.4738 6.54851 41 53 45
-2.632 -47.4738 6.56828 40 52 45
-2.63194 -47.4738 6.58804 39 52 44
-2.63189 -47.4738 6.60781 39 52 44
-2.63184 -47.4738 6.62757 39 52 45
-2.63179 -47.4738 6.64734 40 52 45
-2.65633 -47.9175 6.72941 40 53 45
-2.65628 -47.9175 6.74936 41 53 46
-2.73285 -49.2998 6.96458 42 54 47
-2.7328 -49.2998 6.9851 43 56 47
-2.61348 -47.4684 6.35082 69 81 71
-2.61343 -47.4684 6.37059 65 77 67
-2.61338 -47.4684 6.39035 61 73 63
-2.61333 -47.4684 6.41012 57 70 60
-2.61328 -47.4684 6.42988 54 67 57
-2.61323 -47.4684 6.44964 52 64 55
-2.61318 -47.4684 6.46941 49 62 53
-2.61313 -47.4684 6.48917 47 59 51
-2.61307 -47.4684 6.50894 45 57 49
-2.61302 -47.4684 6.5287 43 55 47
-2.61297 -47.4684 6.54847 41 54 46
-2.61292 -47.4684 6.56823 41 53 45
-2.61287 -47.4684 6.58799 40 52 45
-2.61282 -47.4684 6.60776 40 52 45
-2.61277 -47.4684 6.62752 40 52 45
-2.61272 -47.4684 6.64729 40 53 45
-2.68731 -48.8246 6.85754 41 53 45
-2.68726 -48.8246 6.87787 42 54 46
-2.71304 -49.2941 6.96453 43 55 47
-2.71299 -49.2941 6.98505 44 56 48
-2.59441 -47.4629 6.35077 70 83 72
-2.59436 -47.4629 6.37054 66 79 68
-2.59431 -47.4629 6.3903 63 75 65
-2.59426 -47.4629 6.41007 59 71 61
-2.5942 -47.4629 6.42983 56 68 58
-2.59415 -47.4629 6.44959 53 65 56
-2.5941 -47.4629 6.46936 50 63 54
-2.59405 -47.4629 6.48912 48 60 51
-2.594 -47.4629 6.50889 46 58 49
-2.59395 -47.4629 6.52865 44 56 48
-2.5939 -47.4629 6.54842 42 54 46
-2.59384 -47.4629 6.56818 41 53 45
-2.59379 -47.4629 6.58794 41 53 45
-2.59374 -47.4629 6.60771 40 53 45
-2.61793 -47.9065 6.68941 40 53 45
-2.61788 -47.9065 6.70936 41 53 45
-2.69334 -49.2884 6.92343 42 54 46
-2.69329 -49.2884 6.94395 42 54 46
-3.37466 -61.7589 8.72657 44 56 47
-3.37459 -61.7589 8.75229 45 57 48
-2.57533 -47.4574 6.35072 72 85 74
-2.57528 -47.4574 6.37049 68 80 70
-2.57523 -47.4574 6.39025 64 76 66
-2.57518 -47.4574 6.41002 60 72 63
-2.57513 -47.4574 6.42978 57 69 60
-2.57508 -47.4574 6.44955 54 66 57
-2.57503 -47.4574 6.46931 52 63 54
-2.57497 -47.4574 6.48907 49 61 52
-2.57492 -47.4574 6.50884 47 59 50
-2.57487 -47.4574 6.5286 45 57 48
-2.57482 -47.4574 6.54837 43 55 47
-2.57477 -47.4574 6.56813 42 54 46
-2.57472 -47.4574 6.5879 41 53 45
-2.57467 -47.4574 6.60766 41 53 45
-2.64818 -48.8133 6.81678 41 53 45
-2.64812 -48.8133 6.83711 41 53 45
-2.67353 -49.2827 6.92337 42 54 46
-2.67348 -49.2827 6.9439 43 55 47
-2.55616 -47.4519 6.3902 66 77 67
-2.5561 -47.4519 6.40997 62 73 64
-2.55605 -47.4519 6.42973 58 70 61
-2.556 -47.4519 6.4495 55 67 58
-2.55595 -47.4519 6.46926 53 64 55
-2.5559 -47.4519 6.48902 50 62 53
-2.55585 -47.4519 6.50879 48 59 51
-2.5558 -47.4519 6.52855 45 57 49
-2.55575 -47.4519 6.54832 44 55 47
-2.55569 -47.4519 6.56808 42 54 46
-2.55564 -47.4519 6.58785 42 53 46
-2.55559 -47.4519 6.60761 41 53 45
-2.65383 -49.277 6.88227 41 53 45
-2.65378 -49.277 6.9028 41 53 46
-2.53708 -47.4465 6.39015 67 78 68
-2.53703 -47.4465 6.40992 63 74 65
-2.53698 -47.4465 6.42968 59 71 62
-2.53693 -47.4465 6.44945 56 68 59
-2.53688 -47.4465 6.46921 54 65 56
-2.53682 -47.4465 6.48898 51 62 54
-2.53677 -47.4465 6.50874 48 60 51
-2.53672 -47.4465 6.5285 46 57 49
-2.53667 -47.4465 6.54827 44 56 47
-2.53662 -47.4465 6.56803 43 54 46
-2.53657 -47.4465 6.5878 42 53 46
-2.53652 -47.4465 6.60756 41 53 45
-2.63402 -49.2713 6.88222 41 53 45
-2.63397 -49.2713 6.90275 42 53 46
-2.51801 -47.441 6.3901 68 79 69
-2.51795 -47.441 6.40987 64 75 66
-2.5179 -47.441 6.42963 60 72 62
-2.51785 -47.441 6.4494 57 68 59
-2.5178 -47.441 6.46916 54 66 57
-2.51775 -47.441 6.48893 52 63 54
-2.5177 -47.441 6.50869 49 60 52
-2.51765 -47.441 6.52845 46 58 49
-2.51759 -47.441 6.54822 44 56 48
-2.51754 -47.441 6.56798 43 54 46
-2.51749 -47.441 6.58775 42 53 46
-2.51744 -47.441 6.60751 41 53 45
-2.63959 -49.7439 6.94899 41 53 45
-2.63954 -49.7439 6.96971 41 53 46
-2.49893 -47.4355 6.39006 69 80 70
-2.49888 -47.4355 6.40982 65 76 66
-2.49883 -47.4355 6.42958 61 72 63
-2.49878 -47.4355 6.44935 58 69 60
-2.49872 -47.4355 6.46911 55 66 57
-2.49867 -47.4355 6.48888 52 63 54
-2.49862 -47.4355 6.50864 49 60 52
-2.49857 -47.4355 6.52841 47 58 50
-2.49852 -47.4355 6.54817 45 56 48
-2.49847 -47.4355 6.56793 43 54 46
-2.49842 -47.4355 6.5877 42 53 46
-2.49837 -47.4355 6.60746 41 53 45
-2.67146 -50.7231 7.08654 41 52 45
-2.67141 -50.7231 7.10767 41 53 45
-2.47985 -47.43 6.39001 70 81 71
-2.4798 -47.43 6.40977 66 77 67
-2.47975 -47.43 6.42953 62 73 64
-2.4797 -47.43 6.4493 59 69 60
-2.47965 -47.43 6.46906 55 66 57
-2.4796 -47.43 6.48883 52 63 55
-2.47955 -47.43 6.50859 50 61 52
-2.4795 -47.43 6.52836 47 58 50
-2.47944 -47.43 6.54812 45 56 48
-2.47939 -47.43 6.56789 43 54 46
-2.47934 -47.43 6.58765 42 53 45
-2.47929 -47.43 6.60741 41 52 45
-2.67758 -51.2244 7.15735 41 52 45
-2.67752 -51.2244 7.1787 41 52 45
-2.46078 -47.4246 6.38996 71 81 72
-2.46073 -47.4246 6.40972 66 77 68
-2.46068 -47.4246 6.42949 63 73 64
-2.46063 -47.4246 6.44925 59 70 61
-2.46057 -47.4246 6.46901 56 67 58
-2.46052 -47.4246 6.48878 53 64 55
-2.46047 -47.4246 6.50854 50 61 52
-2.46042 -47.4246 6.52831 47 58 50
-2.46037 -47.4246 6.54807 45 56 48
-2.46032 -47.4246 6.56784 43 54 46
-2.46027 -47.4246 6.5876 42 53 45
-2.46022 -47.4246 6.60736 41 52 45
-2.65698 -51.2185 7.1573 40 52 44
-2.65692 -51.2185 7.17864 41 52 44
-2.4417 -47.4191 6.38991 71 82 72
-2.44165 -47.4191 6.40967 67 78 68
-2.4416 -47.4191 6.42944 63 74 65
-2.44155 -47.4191 6.4492 60 70 61
-2.4415 -47.4191 6.46897 56 67 58
-2.44145 -47.4191 6.48873 53 64 55
-2.4414 -47.4191 6.50849 50 61 52
-2.44134 -47.4191 6.52826 47 58 50
-2.44129 -47.4191 6.54802 45 56 48
-2.44124 -47.4191 6.56779 43 54 46
-2.44119 -47.4191 6.58755 42 52 45
-2.44114 -47.4191 6.60732 41 52 44
-2.61027 -50.7055 7.08638 40 51 44
-2.61022 -50.7055 7.10752 40 51 44
-2.42263 -47.4136 6.38986 72 83 73
-2.42258 -47.4136 6.40962 68 78 69
-2.42253 -47.4136 6.42939 64 74 65
-2.42247 -47.4136 6.44915 60 71 62
-2.42242 -47.4136 6.46892 57 67 58
-2.42237 -47.4136 6.48868 53 64 55
-2.42232 -47.4136 6.50844 50 61 53
-2.42227 -47.4136 6.52821 48 58 50
-2.42222 -47.4136 6.54797 45 56 48
-2.42217 -47.4136 6.56774 43 54 46
-2.42212 -47.4136 6.5875 41 52 45
-2.42206 -47.4136 6.60727 40 51 44
-2.53959 -49.7152 6.94873 40 51 44
-2.53953 -49.7152 6.96945 40 51 44
-2.57025 -50.6938 6.7904 82 93 82
-2.57019 -50.6938 6.81153 77 88 78
-2.40355 -47.4081 6.38981 73 83 73
-2.4035 -47.4081 6.40957 68 79 69
-2.40345 -47.4081 6.42934 64 75 65
-2.4034 -47.4081 6.4491 61 71 62
-2.40335 -47.4081 6.46887 57 67 59
-2.4033 -47.4081 6.48863 54 64 55
-2.40325 -47.4081 6.5084 51 61 53
-2.40319 -47.4081 6.52816 48 58 50
-2.40314 -47.4081 6.54792 45 56 48
-2.40309 -47.4081 6.56769 43 53 46
-2.40304 -47.4081 6.58745 41 52 44
-2.40299 -47.4081 6.60722 40 51 44
-2.49536 -49.2315 6.88187 39 50 43
-2.49531 -49.2315 6.90239 40 50 43
-2.50034 -49.7037 6.6585 82 93 83
-2.50028 -49.7037 6.67922 78 88 78
-2.38448 -47.4026 6.38976 73 84 74
-2.38443 -47.4026 6.40952 69 79 70
-2.38438 -47.4026 6.42929 65 75 66
-2.38432 -47.4026 6.44905 61 71 62
-2.38427 -47.4026 6.46882 57 68 59
-2.38422 -47.4026 6.48858 54 64 56
-2.38417 -47.4026 6.50835 51 61 53
-2.38412 -47.4026 6.52811 48 58 50
-2.38407 -47.4026 6.54787 45 55 47
-2.38402 -47.4026 6.56764 43 53 46
-2.38397 -47.4026 6.5874 41 51 44
-2.38391 -47.4026 6.60717 40 50 43
-2.47555 -49.2258 6.88181 39 50 43
-2.4755 -49.2258 6.90234 39 50 43
-2.43309 -48.7514 6.53162 83 94 83
-2.43304 -48.7514 6.55195 78 89 79
-2.3654 -47.3972 6.38971 74 84 74
-2.36535 -47.3972 6.40948 69 80 70
-2.3653 -47.3972 6.42924 65 75 66
-2.36525 -47.3972 6.449 61 71 62
-2.3652 -47.3972 6.46877 58 68 59
-2.36515 -47.3972 6.48853 54 64 56
-2.3651 -47.3972 6.5083 51 61 53
-2.36504 -47.3972 6.52806 48 58 50
-2.36499 -47.3972 6.54783 45 55 47
-2.36494 -47.3972 6.56759 43 53 45
-2.36489 -47.3972 6.58735 41 51 44
-2.36484 -47.3972 6.60712 39 50 43
-2.43235 -48.7514 6.81622 39 49 42
-2.4323 -48.7514 6.83655 39 49 42
-2.36836 -47.8346 6.40948 84 94 84
-2.36831 -47.8346 6.42943 79 89 79
-2.34633 -47.3917 6.38966 74 85 75
-2.34628 -47.3917 6.40943 70 80 71
-2.34622 -47.3917 6.42919 66 76 67
-2.34617 -47.3917 6.44895 62 72 63
-2.34612 -47.3917 6.46872 58 68 59
-2.34607 -47.3917 6.48848 54 64 56
-2.34602 -47.3917 6.50825 51 61 53
-2.34597 -47.3917 6.52801 48 58 50
-2.34592 -47.3917 6.54778 45 55 47
-2.34587 -47.3917 6.56754 43 53 45
-2.34581 -47.3917 6.58731 41 51 44
-2.34576 -47.3917 6.60707 39 49 43
-2.36763 -47.8346 6.68877 38 49 42
-2.36758 -47.8346 6.70872 38 49 42
-2.32735 -47.3862 6.35008 84 95 85
-2.3273 -47.3862 6.36985 79 90 80
-2.32725 -47.3862 6.38961 75 85 75
-2.3272 -47.3862 6.40938 70 80 71
-2.32715 -47.3862 6.42914 66 76 67
-2.3271 -47.3862 6.44891 62 72 63
-2.32705 -47.3862 6.46867 58 68 59
-2.327 -47.3862 6.48843 54 64 56
-2.32694 -47.3862 6.5082 51 61 53
-2.32689 -47.3862 6.52796 48 58 50
-2.32684 -47.3862 6.54773 45 55 47
-2.32679 -47.3862 6.56749 42 52 45
-2.32674 -47.3862 6.58726 40 50 43
-2.32669 -47.3862 6.60702 39 49 42
-2.32664 -47.3862 6.62678 38 48 41
-2.32659 -47.3862 6.64655 38 48 41
-2.30828 -47.3807 6.35003 84 95 85
-2.30823 -47.3807 6.3698 79 90 80
-2.30818 -47.3807 6.38956 75 85 76
-2.30813 -47.3807 6.40933 70 80 71
-2.30807 -47.3807 6.42909 66 76 67
-2.30802 -47.3807 6.44886 62 72 63
-2.30797 -47.3807 6.46862 58 68 60
-2.30792 -47.3807 6.48839 54 64 56
-2.30787 -47.3807 6.50815 51 61 53
-2.30782 -47.3807 6.52791 48 57 50
-2.30777 -47.3807 6.54768 45 55 47
-2.30772 -47.3807 6.56744 42 52 45
-2.30766 -47.3807 6.58721 40 50 43
-2.30761 -47.3807 6.60697 38 49 42
-2.30756 -47.3807 6.62674 37 48 41
-2.30751 -47.3807 6.6465 38 48 41
-2.2892 -47.3753 6.34999 84 95 85
-2.28915 -47.3753 6.36975 80 90 80
-2.2891 -47.3753 6.38951 75 85 76
-2.28905 -47.3753 6.40928 70 80 71
-2.289 -47.3753 6.42904 66 76 67
-2.28895 -47.3753 6.44881 62 72 63
-2.2889 -47.3753 6.46857 58 68 59
-2.28885 -47.3753 6.48834 54 64 56
-2.28879 -47.3753 6.5081 51 60 53
-2.28874 -47.3753 6.52786 47 57 49
-2.28869 -47.3753 6.54763 44 54 47
-2.28864 -47.3753 6.56739 42 52 44
-2.28859 -47.3753 6.58716 40 49 43
-2.28854 -47.3753 6.60692 38 48 41
-2.35387 -48.7288 6.81602 37 47 41
-2.35382 -48.7288 6.83635 37 47 40
-2.27013 -47.3698 6.34994 84 95 85
-2.27008 -47.3698 6.3697 80 90 80
-2.27003 -47.3698 6.38947 75 85 76
-2.26997 -47.3698 6.40923 70 80 71
-2.26992 -47.3698 6.42899 66 76 67
-2.26987 -47.3698 6.44876 62 72 63
-2.26982 -47.3698 6.46852 58 67 59
-2.26977 -47.3698 6.48829 54 64 56
-2.26972 -47.3698 6.50805 50 60 52
-2.26967 -47.3698 6.52782 47 57 49
-2.26962 -47.3698 6.54758 44 54 46
-2.26956 -47.3698 6.56734 41 51 44
-2.26951 -47.3698 6.58711 39 49 42
-2.26946 -47.3698 6.60687 38 47 41
-2.47572 -51.6761 7.22906 37 46 40
-2.47566 -51.6761 7.25062 37 46 40
-2.25105 -47.3643 6.34989 85 95 85
-2.251 -47.3643 6.36965 80 90 81
-2.25095 -47.3643 6.38942 75 85 76
-2.2509 -47.3643 6.40918 70 80 71
-2.25085 -47.3643 6.42894 66 76 67
-2.2508 -47.3643 6.44871 62 71 63
-2.25075 -47.3643 6.46847 58 67 59
-2.25069 -47.3643 6.48824 54 63 55
-2.25064 -47.3643 6.508 50 60 52
-2.25059 -47.3643 6.52777 47 56 49
-2.25054 -47.3643 6.54753 44 53 46
-2.25049 -47.3643 6.56729 41 51 44
-2.25044 -47.3643 6.58706 39 48 42
-2.25039 -47.3643 6.60682 37 47 40
-2.53163 -53.2849 7.45491 36 46 40
-2.53157 -53.2849 7.47715 36 46 39
-2.23198 -47.3588 6.34984 85 95 85
-2.23193 -47.3588 6.3696 80 90 81
-2.23188 -47.3588 6.38937 75 85 76
-2.23182 -47.3588 6.40913 70 80 71
-2.23177 -47.3588 6.4289 66 76 67
-2.23172 -47.3588 6.44866 62 71 63
-2.23167 -47.3588 6.46842 57 67 59
-2.23162 -47.3588 6.48819 54 63 55
-2.23157 -47.3588 6.50795 50 60 52
-2.23152 -47.3588 6.52772 46 56 49
-2.23147 -47.3588 6.54748 43 53 46
-2.23141 -47.3588 6.56725 41 50 43
-2.23136 -47.3588 6.58701 38 48 41
-2.23131 -47.3588 6.60677 37 47 40
-2.51017 -53.2787 7.45486 36 45 39
-2.51011 -53.2787 7.47709 36 45 39
-2.69864 -57.4625 2.57286 97 113 101
-2.69857 -57.4625 2.59684 100 116 103
-2.2129 -47.3534 6.34979 85 95 86
-2.21285 -47.3534 6.36955 80 90 81
-2.2128 -47.3534 6.38932 75 85 76
-2.21275 -47.3534 6.40908 70 81 72
-2.2127 -47.3534 6.42885 66 76 67
-2.21265 -47.3534 6.44861 62 71 63
-2.2126 -47.3534 6.46837 57 67 59
-2.21254 -47.3534 6.48814 53 63 55
-2.21249 -47.3534 6.5079 50 59 52
-2.21244 -47.3534 6.52767 46 56 48
-2.21239 -47.3534 6.54743 43 53 45
-2.21234 -47.3534 6.5672 40 50 43
-2.21229 -47.3534 6.58696 38 48 41
-2.21224 -47.3534 6.60672 36 46 40
-2.48871 -53.2725 7.4548 35 45 39
-2.48865 -53.2725 7.47704 35 45 39
-2.61669 -56.1931 2.51625 97 113 100
-2.61663 -56.1931 2.53971 100 116 103
-2.19383 -47.3479 6.34974 85 95 86
-2.19378 -47.3479 6.3695 80 90 81
-2.19373 -47.3479 6.38927 75 85 76
-2.19367 -47.3479 6.40903 70 81 72
-2.19362 -47.3479 6.4288 66 76 67
-2.19357 -47.3479 6.44856 61 71 63
-2.19352 -47.3479 6.46833 57 67 59
-2.19347 -47.3479 6.48809 53 63 55
-2.19342 -47.3479 6.50785 49 59 51
-2.19337 -47.3479 6.52762 46 55 48
-2.19331 -47.3479 6.54738 43 52 45
-2.19326 -47.3479 6.56715 40 49 43
-2.19321 -47.3479 6.58691 38 47 41
-2.19316 -47.3479 6.60668 36 46 39
-2.46725 -53.2664 7.45475 35 45 38
-2.46719 -53.2664 7.47698 35 44 38
-2.56585 -55.5759 2.48884 97 113 100
-2.56579 -55.5759 2.51205 100 116 103
-2.53814 -54.9783 2.50799 102 119 105
-2.53808 -54.9783 2.53094 104 121 107
-2.17475 -47.3424 6.34969 85 95 86
-2.1747 -47.3424 6.36945 80 90 81
-2.17465 -47.3424 6.38922 75 85 76
-2.1746 -47.3424 6.40898 70 81 72
-2.17455 -47.3424 6.42875 66 76 67
-2.1745 -47.3424 6.44851 61 71 63
-2.17444 -47.3424 6.46828 57 67 59
-2.17439 -47.3424 6.48804 53 63 55
-2.17434 -47.3424 6.5078 49 59 51
-2.17429 -47.3424 6.52757 46 55 48
-2.17424 -47.3424 6.54733 43 52 45
-2.17419 -47.3424 6.5671 40 49 42
-2.17414 -47.3424 6.58686 38 47 40
-2.17409 -47.3424 6.60663 36 45 39
-2.44579 -53.2602 7.45469 35 44 38
-2.44573 -53.2602 7.47692 35 44 38
-2.54346 -55.5694 2.48879 97 112 100
-2.5434 -55.5694 2.51199 99 116 103
-2.46302 -53.8146 2.45513 102 118 105
-2.46296 -53.8146 2.4776 103 121 107
-2.15568 -47.3369 6.34964 85 95 86
-2.15563 -47.3369 6.36941 80 90 81
-2.15557 -47.3369 6.38917 75 85 76
-2.15552 -47.3369 6.40893 70 81 72
-2.15547 -47.3369 6.4287 66 76 67
-2.15542 -47.3369 6.44846 61 71 63
-2.15537 -47.3369 6.46823 57 67 59
-2.15532 -47.3369 6.48799 53 63 55
-2.15527 -47.3369 6.50776 49 59 51
-2.15522 -47.3369 6.52752 46 55 48
-2.15516 -47.3369 6.54728 42 52 45
-2.15511 -47.3369 6.56705 40 49 42
-2.15506 -47.3369 6.58681 37 47 40
-2.15501 -47.3369 6.60658 36 45 39
-2.42433 -53.254 7.45463 34 44 38
-2.42427 -53.254 7.47687 34 43 37
-2.41591 -53.2479 2.4295 102 118 105
-2.41585 -53.2479 2.45174 103 120 107
-2.1366 -47.3315 6.34959 85 95 86
-2.13655 -47.3315 6.36936 80 90 81
-2.1169 -46.8972 6.3305 75 85 76
-2.11685 -46.8972 6.35009 70 81 72
-2.1168 -46.8972 6.36967 66 76 67
-2.11675 -46.8972 6.38925 61 71 63
-2.13629 -47.3315 6.46818 57 67 59
-2.13624 -47.3315 6.48794 53 62 55
-2.13619 -47.3315 6.50771 49 58 51
-2.13614 -47.3315 6.52747 45 55 48
-2.13609 -47.3315 6.54724 42 51 45
-2.13604 -47.3315 6.567 40 49 42
-2.13599 -47.3315 6.58676 37 46 40
-2.13594 -47.3315 6.60653 35 45 39
-2.40287 -53.2479 7.45458 34 43 38
-2.40281 -53.2479 7.47681 34 43 37
-2.39445 -53.2417 2.42945 101 118 105
-2.39439 -53.2417 2.45168 103 120 107
-2.82351 -63.1013 8.41335 94 106 95
-2.82344 -63.1013 8.4397 89 101 90
-2.11753 -47.326 6.34954 85 95 86
-2.11748 -47.326 6.36931 80 90 81
-2.0602 -46.0469 6.21639 75 85 76
-2.06015 -46.0469 6.23562 70 81 72
-2.0601 -46.0469 6.25485 66 76 67
-2.06005 -46.0469 6.27408 61 71 63
-2.11722 -47.326 6.46813 57 67 59
-2.11717 -47.326 6.48789 53 62 55
-2.11712 -47.326 6.50766 49 58 51
-2.11706 -47.326 6.52742 45 55 48
-2.11701 -47.326 6.54719 42 51 44
-2.11696 -47.326 6.56695 39 48 42
-2.11691 -47.326 6.58671 37 46 40
-2.11686 -47.326 6.60648 35 44 38
-2.38141 -53.2417 7.45452 34 43 37
-2.38135 -53.2417 7.47676 34 43 37
-1.98131 -44.4401 1.87952 75 86 76
-1.98127 -44.4401 1.89808 79 91 81
-2.81243 -63.094 2.87928 101 118 105
-2.81236 -63.094 2.90563 103 120 107
-2.09855 -47.3205 6.30996 94 106 95
-2.0985 -47.3205 6.32973 89 101 90
-2.09845 -47.3205 6.34949 84 95 86
-2.0984 -47.3205 6.36926 80 90 81
-2.02341 -45.6305 6.16084 75 85 76
-2.02336 -45.6305 6.1799 70 81 72
-2.02331 -45.6305 6.19896 66 76 67
-2.02326 -45.6305 6.21802 61 71 63
-2.09814 -47.3205 6.46808 57 67 59
-2.09809 -47.3205 6.48784 53 62 55
-2.09804 -47.3205 6.50761 49 58 51
-2.09799 -47.3205 6.52737 45 55 47
-2.09794 -47.3205 6.54714 42 51 44
-2.09789 -47.3205 6.5669 39 48 42
-2.09784 -47.3205 6.58667 37 46 40
-2.09778 -47.3205 6.60643 35 44 38
-2.35995 -53.2356 7.45447 34 43 37
-2.35989 -53.2356 7.4767 34 43 37
-2.77277 -63.0867 8.36052 103 116 104
-2.77271 -63.0867 8.38687 99 111 100
-2.07948 -47.315 6.30992 94 106 95
-2.07943 -47.315 6.32968 89 100 90
-2.07938 -47.315 6.34944 84 95 85
-2.07932 -47.315 6.36921 80 90 81
-2.00501 -45.6252 6.1608 75 85 76
-2.00496 -45.6252 6.17985 70 81 72
-2.00491 -45.6252 6.19891 66 76 67
-2.00487 -45.6252 6.21797 61 71 63
-2.07907 -47.315 6.46803 57 67 59
-2.07902 -47.315 6.48779 53 62 55
-2.07897 -47.315 6.50756 49 58 51
-2.07891 -47.315 6.52732 45 54 47
-2.07886 -47.315 6.54709 42 51 44
-2.07881 -47.315 6.56685 39 48 42
-2.07876 -47.315 6.58662 37 46 40
-2.07871 -47.315 6.60638 35 44 38
-2.33849 -53.2294 7.45441 34 43 37
-2.33843 -53.2294 7.47665 33 42 37
-2.51371 -57.4093 2.47644 82 95 85
-2.51364 -57.4093 2.50043 86 100 89
-2.54214 -58.0617 2.5531 90 104 92
-2.54208 -58.0617 2.57735 93 108 96
-2.06051 -47.3095 6.27034 103 115 104
-2.06045 -47.3095 6.2901 99 110 99
-2.0604 -47.3095 6.30987 94 105 95
-2.06035 -47.3095 6.32963 89 100 90
-2.0603 -47.3095 6.3494 84 95 85
-2.06025 -47.3095 6.36916 79 90 81
-1.98662 -45.6199 6.16075 75 85 76
-1.98657 -45.6199 6.17981 70 80 71
-1.98652 -45.6199 6.19886 66 76 67
-1.98647 -45.6199 6.21792 61 71 63
-2.05999 -47.3095 6.46798 57 67 59
-2.05994 -47.3095 6.48775 53 62 55
-2.05989 -47.3095 6.50751 49 58 51
-2.05984 -47.3095 6.52727 45 54 47
-2.05979 -47.3095 6.54704 42 51 44
-2.05974 -47.3095 6.5668 39 48 42
-2.05969 -47.3095 6.58657 37 46 40
-2.05963 -47.3095 6.60633 35 44 38
-2.31703 -53.2232 7.45436 34 43 37
-2.31697 -53.2232 7.47659 33 42 37
-2.43582 -56.1411 2.42196 82 95 85
-2.43576 -56.1411 2.44542 86 100 88
-2.51873 -58.055 2.55304 90 104 92
-2.51867 -58.055 2.57729 93 108 96
-2.72204 -63.0721 8.30768 111 124 112
-2.72198 -63.0721 8.33403 107 120 108
-2.04143 -47.3041 6.27029 103 115 104
-2.04138 -47.3041 6.29005 98 110 99
-2.04133 -47.3041 6.30982 94 105 94
-2.04128 -47.3041 6.32958 89 100 90
-2.04123 -47.3041 6.34935 84 95 85
-2.04117 -47.3041 6.36911 79 90 80
-1.96823 -45.6146 6.1607 75 85 76
-1.96818 -45.6146 6.17976 70 80 71
-1.96813 -45.6146 6.19882 66 76 67
-1.96808 -45.6146 6.21788 61 71 63
-2.04092 -47.3041 6.46793 57 66 58
-2.04087 -47.3041 6.4877 53 62 54
-2.04081 -47.3041 6.50746 49 58 51
-2.04076 -47.3041 6.52722 45 54 47
-2.04071 -47.3041 6.54699 42 51 44
-2.04066 -47.3041 6.56675 39 48 42
-2.04061 -47.3041 6.58652 37 46 40
-2.04056 -47.3041 6.60628 35 44 38
-2.29557 -53.2171 7.4543 34 43 37
-2.29551 -53.2171 7.47654 33 42 37
-2.38695 -55.5244 2.39558 82 95 85
-2.38689 -55.5244 2.41878 86 100 88
-2.46729 -57.396 2.52429 89 104 92
-2.46722 -57.396 2.54828 93 108 96
-2.02246 -47.2986 6.23071 111 124 112
-2.02241 -47.2986 6.25048 107 119 108
-2.02235 -47.2986 6.27024 102 115 103
-2.0223 -47.2986 6.29 98 110 99
-2.02225 -47.2986 6.30977 93 105 94
-2.0222 -47.2986 6.32953 89 100 89
-2.02215 -47.2986 6.3493 84 95 85
-2.0221 -47.2986 6.36906 79 90 80
-1.94983 -45.6094 6.16065 75 85 76
-1.94978 -45.6094 6.17971 70 80 71
-1.94973 -45.6094 6.19877 66 76 67
-1.94968 -45.6094 6.21783 61 71 63
-2.02184 -47.2986 6.46788 57 66 58
-2.02179 -47.2986 6.48765 52 62 54
-2.02174 -47.2986 6.50741 49 58 51
-2.02169 -47.2986 6.52718 45 54 47
-2.02164 -47.2986 6.54694 42 51 44
-2.02159 -47.2986 6.5667 39 48 42
-2.02153 -47.2986 6.58647 37 46 40
-2.02148 -47.2986 6.60623 35 44 38
-2.27411 -53.2109 7.45425 33 43 37
-2.27405 -53.2109 7.47648 33 42 36
-2.36456 -55.518 2.39552 82 95 85
-2.3645 -55.518 2.41872 86 100 88
-2.39042 -56.1281 2.46876 89 104 92
-2.39036 -56.1281 2.49221 93 108 96
-2.67131 -63.0575 8.25484 118 131 119
-2.67124 -63.0575 8.2812 114 128 115
-2.00338 -47.2931 6.23066 110 123 111
-2.00333 -47.2931 6.25043 106 119 107
-2.00328 -47.2931 6.27019 102 114 103
-2.00323 -47.2931 6.28995 98 110 98
-2.00318 -47.2931 6.30972 93 105 94
-2.00313 -47.2931 6.32948 88 100 89
-2.00307 -47.2931 6.34925 84 95 84
-2.00302 -47.2931 6.36901 79 90 80
-1.93144 -45.6041 6.16061 74 85 75
-1.93139 -45.6041 6.17966 70 80 71
-1.93134 -45.6041 6.19872 65 75 67
-1.93129 -45.6041 6.21778 61 71 62
-2.00277 -47.2931 6.46783 57 66 58
-2.00272 -47.2931 6.4876 52 62 54
-2.00266 -47.2931 6.50736 48 58 51
-2.00261 -47.2931 6.52713 45 54 47
-2.00256 -47.2931 6.54689 42 51 44
-2.00251 -47.2931 6.56666 39 48 41
-2.00246 -47.2931 6.58642 37 46 39
-2.00241 -47.2931 6.60618 35 44 38
-2.25265 -53.2048 7.45419 33 42 37
-2.25259 -53.2048 7.47643 33 42 36
-2.47677 -58.7019 2.53313 82 95 85
-2.47671 -58.7019 2.55767 86 100 88
-1.98441 -47.2876 6.19108 117 131 118
-1.98436 -47.2876 6.21085 114 127 114
-1.98431 -47.2876 6.23061 110 123 110
-1.98426 -47.2876 6.25038 106 119 106
-1.9842 -47.2876 6.27014 102 114 102
-1.98415 -47.2876 6.28991 97 109 98
-1.9841 -47.2876 6.30967 93 104 93
-1.98405 -47.2876 6.32943 88 99 88
-1.984 -47.2876 6.3492 83 94 84
-1.98395 -47.2876 6.36896 79 89 79
-1.91304 -45.5988 6.16056 74 84 75
-1.91299 -45.5988 6.17962 70 80 71
-1.91294 -45.5988 6.19868 65 75 66
-1.91289 -45.5988 6.21773 61 71 62
-1.96549 -46.8538 6.40845 56 66 58
-1.96544 -46.8538 6.42803 52 62 54
-1.96539 -46.8538 6.44761 48 58 50
-1.96534 -46.8538 6.4672 45 54 47
-1.96529 -46.8538 6.48678 42 51 44
-1.96524 -46.8538 6.50636 39 48 41
-1.98338 -47.2876 6.58637 36 45 39
-1.98333 -47.2876 6.60613 35 44 38
-2.25468 -53.7586 7.5326 33 42 37
-2.25462 -53.7586 7.55507 33 42 36
-2.07225 -49.5774 2.05669 67 77 68
-2.07219 -49.5774 2.07741 71 82 72
-1.99467 -47.7241 2.0197 75 86 76
-1.99462 -47.7241 2.03965 79 91 81
-1.96533 -47.2822 6.19103 117 130 117
-1.96528 -47.2822 6.2108 113 127 114
-1.96523 -47.2822 6.23056 109 123 110
-1.96518 -47.2822 6.25033 105 118 106
-1.96513 -47.2822 6.27009 101 113 101
-1.96508 -47.2822 6.28986 97 109 97
-1.96503 -47.2822 6.30962 92 104 92
-1.96498 -47.2822 6.32938 88 99 88
-1.96492 -47.2822 6.34915 83 94 83
-1.96487 -47.2822 6.36891 78 89 79
-1.89465 -45.5935 6.16051 74 84 74
-1.8946 -45.5935 6.17957 69 79 70
-1.89455 -45.5935 6.19863 65 75 66
-1.8945 -45.5935 6.21769 60 70 62
-1.91152 -46.0043 6.29293 56 66 58
-1.91147 -46.0043 6.31216 52 61 54
-1.91142 -46.0043 6.33139 48 57 50
-1.91137 -46.0043 6.35062 45 54 47
-1.91132 -46.0043 6.36985 42 50 44
-1.91127 -46.0043 6.38908 39 48 41
-1.96431 -47.2822 6.58632 36 45 39
-1.96426 -47.2822 6.60609 35 44 38
-2.28101 -54.9083 7.69454 33 42 37
-2.28095 -54.9083 7.71749 33 42 36
-1.94626 -47.2767 6.19099 116 130 116
-1.94621 -47.2767 6.21075 113 126 113
-1.94616 -47.2767 6.23051 109 122 109
-1.94611 -47.2767 6.25028 105 118 105
-1.94605 -47.2767 6.27004 101 113 101
-1.946 -47.2767 6.28981 96 108 96
-1.94595 -47.2767 6.30957 92 103 92
-1.9459 -47.2767 6.32934 87 98 87
-1.94585 -47.2767 6.3491 83 93 83
-1.9458 -47.2767 6.36886 78 88 78
-1.87626 -45.5882 6.16046 73 84 74
-1.87621 -45.5882 6.17952 69 79 70
-1.87616 -45.5882 6.19858 65 75 65
-1.87611 -45.5882 6.21764 60 70 61
-1.87606 -45.5882 6.2367 56 65 57
-1.87601 -45.5882 6.25576 52 61 53
-1.87596 -45.5882 6.27481 48 57 50
-1.87591 -45.5882 6.29387 44 53 47
-1.87586 -45.5882 6.31293 41 50 44
-1.87581 -45.5882 6.33199 39 47 41
-1.94523 -47.2767 6.58627 36 45 39
-1.94518 -47.2767 6.60604 34 43 38
-1.92718 -47.2712 6.19094 116 130 116
-1.92713 -47.2712 6.2107 112 126 112
-1.92708 -47.2712 6.23046 108 122 108
-1.92703 -47.2712 6.25023 104 117 104
-1.92698 -47.2712 6.26999 100 113 100
-1.92693 -47.2712 6.28976 96 108 96
-1.92688 -47.2712 6.30952 91 103 91
-1.92682 -47.2712 6.32929 87 98 87
-1.92677 -47.2712 6.34905 82 93 82
-1.92672 -47.2712 6.36882 78 88 78
-1.85786 -45.583 6.16042 73 83 73
-1.85781 -45.583 6.17947 69 79 69
-1.85776 -45.583 6.19853 64 74 65
-1.85771 -45.583 6.21759 60 70 61
-1.85766 -45.583 6.23665 56 65 57
-1.85761 -45.583 6.25571 52 61 53
-1.85756 -45.583 6.27477 48 57 49
-1.85751 -45.583 6.29382 44 53 46
-1.85747 -45.583 6.31288 41 50 43
-1.85742 -45.583 6.33194 39 47 41
-1.92616 -47.2712 6.58622 36 45 39
-1.92611 -47.2712 6.60599 34 43 38
-1.90811 -47.2657 6.19089 116 129 115
-1.90806 -47.2657 6.21065 112 126 112
-1.90801 -47.2657 6.23042 108 121 108
-1.90795 -47.2657 6.25018 104 117 104
-1.9079 -47.2657 6.26994 100 112 100
-1.90785 -47.2657 6.28971 95 108 95
-1.9078 -47.2657 6.30947 91 103 91
-1.90775 -47.2657 6.32924 86 98 86
-1.9077 -47.2657 6.349 82 93 82
-1.90765 -47.2657 6.36877 77 88 77
-1.83947 -45.5777 6.16037 73 83 73
-1.83942 -45.5777 6.17943 68 78 69
-1.83937 -45.5777 6.19849 64 74 65
-1.83932 -45.5777 6.21754 60 69 60
-1.83927 -45.5777 6.2366 55 65 57
-1.83922 -45.5777 6.25566 51 61 53
-1.85574 -45.9883 6.33125 48 57 49
-1.85569 -45.9883 6.35048 44 53 46
-1.85564 -45.9883 6.36971 41 50 43
-1.85559 -45.9883 6.38894 38 47 41
-1.90708 -47.2657 6.58617 36 45 39
-1.90703 -47.2657 6.60594 34 43 37
-1.88903 -47.2603 6.19084 115 129 115
-1.88898 -47.2603 6.2106 112 125 112
-1.88893 -47.2603 6.23037 108 121 108
-1.88888 -47.2603 6.25013 104 117 103
-1.88883 -47.2603 6.2699 100 112 99
-1.88878 -47.2603 6.28966 95 107 95
-1.88873 -47.2603 6.30942 91 102 90
-1.88867 -47.2603 6.32919 86 98 86
-1.88862 -47.2603 6.34895 82 93 81
-1.88857 -47.2603 6.36872 77 88 77
-1.82107 -45.5724 6.16032 72 83 73
-1.82102 -45.5724 6.17938 68 78 68
-1.82097 -45.5724 6.19844 64 74 64
-1.82092 -45.5724 6.2175 59 69 60
-1.82088 -45.5724 6.23655 55 65 56
-1.82083 -45.5724 6.25561 51 60 52
-1.87089 -46.8267 6.44737 47 56 49
-1.87084 -46.8267 6.46695 44 53 46
-1.87079 -46.8267 6.48653 41 50 43
-1.87074 -46.8267 6.50612 38 47 40
-1.88801 -47.2603 6.58612 36 45 39
-1.88796 -47.2603 6.60589 34 43 37
-1.86996 -47.2548 6.19079 115 129 115
-1.86991 -47.2548 6.21055 112 125 111
-1.86986 -47.2548 6.23032 108 121 107
-1.8698 -47.2548 6.25008 104 117 103
-1.86975 -47.2548 6.26985 99 112 99
-1.8697 -47.2548 6.28961 95 107 94
-1.86965 -47.2548 6.30937 91 102 90
-1.8696 -47.2548 6.32914 86 97 86
-1.86955 -47.2548 6.3489 81 92 81
-1.8695 -47.2548 6.36867 77 87 77
-1.80268 -45.5671 6.16027 72 83 72
-1.80263 -45.5671 6.17933 68 78 68
-1.80258 -45.5671 6.19839 64 73 64
-1.80253 -45.5671 6.21745 59 69 60
-1.80248 -45.5671 6.23651 55 64 56
-1.80243 -45.5671 6.25557 51 60 52
-1.86914 -47.2548 6.50702 47 56 49
-1.86909 -47.2548 6.52678 44 53 46
-1.86903 -47.2548 6.54655 41 49 43
-1.86898 -47.2548 6.56631 38 47 40
-1.86893 -47.2548 6.58607 36 44 38
-1.86888 -47.2548 6.60584 34 43 37
-1.85088 -47.2493 6.19074 115 129 115
-1.85083 -47.2493 6.2105 112 125 111
-1.85078 -47.2493 6.23027 108 121 107
-1.85073 -47.2493 6.25003 104 117 103
-1.85068 -47.2493 6.2698 99 112 99
-1.85063 -47.2493 6.28956 95 107 94
-1.85057 -47.2493 6.30933 90 102 90
-1.85052 -47.2493 6.32909 86 97 85
-1.85047 -47.2493 6.34885 81 92 81
-1.85042 -47.2493 6.36862 77 87 76
-1.78428 -45.5618 6.16023 72 82 72
-1.78424 -45.5618 6.17928 68 78 68
-1.78419 -45.5618 6.19834 63 73 64
-1.78414 -45.5618 6.2174 59 69 60
-1.78409 -45.5618 6.23646 55 64 56
-1.78404 -45.5618 6.25552 51 60 52
-1.85006 -47.2493 6.50697 47 56 49
-1.85001 -47.2493 6.52673 44 52 45
-1.84996 -47.2493 6.5465 41 49 43
-1.84991 -47.2493 6.56626 38 46 40
-1.84986 -47.2493 6.58603 36 44 38
-1.84981 -47.2493 6.60579 34 43 37
-1.83181 -47.2438 6.19069 115 129 115
-1.83176 -47.2438 6.21045 112 125 111
-1.8317 -47.2438 6.23022 108 121 107
-1.83165 -47.2438 6.24998 104 117 103
-1.8316 -47.2438 6.26975 99 112 99
-1.83155 -47.2438 6.28951 95 107 94
-1.8315 -47.2438 6.30928 90 102 90
-1.83145 -47.2438 6.32904 86 97 85
-1.8314 -47.2438 6.3488 81 92 81
-1.83135 -47.2438 6.36857 77 87 76
-1.76589 -45.5565 6.16018 72 82 72
-1.76584 -45.5565 6.17924 68 78 68
-1.76579 -45.5565 6.1983 63 73 64
-1.76574 -45.5565 6.21735 59 69 60
-1.76569 -45.5565 6.23641 55 64 56
-1.76564 -45.5565 6.25547 51 60 52
-1.81419 -46.8104 6.44722 47 56 48
-1.81414 -46.8104 6.46681 44 52 45
-1.81409 -46.8104 6.48639 41 49 42
-1.81404 -46.8104 6.50597 38 46 40
-1.83078 -47.2438 6.58598 36 44 38
-1.83073 -47.2438 6.60574 34 42 37
-2.05951 -53.1493 7.45369 33 41 36
-2.05946 -53.1493 7.47593 32 41 35
-2.43051 -62.9845 3.03641 105 122 109
-2.43045 -62.9845 3.06276 105 122 109
-2.52385 -65.4069 3.20792 105 122 109
-2.52378 -65.4069 3.23529 106 122 110
-1.81273 -47.2383 6.19064 115 129 115
-1.81268 -47.2383 6.21041 112 125 111
-1.81263 -47.2383 6.23017 108 121 107
