ply
format ascii 1.0
comment author : Loiseau & Broux
comment object : 3d point Cloud
element vertex 1373
property float x
property float y
property float z
property uchar red
property uchar green
property uchar blue
end_header
1.15125 -78.451 -8.51961 80 99 86
1.15134 -78.451 -8.48626 79 98 86
1.15143 -78.451 -8.4529 78 97 85
1.15151 -78.451 -8.41955 77 97 84
1.1516 -78.451 -8.38619 77 96 83
1.15168 -78.451 -8.35284 76 95 83
1.08802 -74.1087 -7.859 76 94 82
1.0881 -74.1087 -7.82749 75 94 82
1.08818 -74.1087 -7.79598 75 93 81
1.08826 -74.1087 -7.76447 74 93 80
1.08435 -73.8363 -7.70453 74 92 80
1.08443 -73.8363 -7.67314 74 92 79
1.08451 -73.8363 -7.64175 73 92 79
1.08459 -73.8363 -7.61035 73 91 78
1.08467 -73.8363 -7.57896 72 91 78
1.08475 -73.8363 -7.54757 71 90 77
1.08483 -73.8363 -7.51617 70 89 76
1.08491 -73.8363 -7.48478 68 88 74
1.089 -74.1087 -7.48089 67 86 73
1.08908 -74.1087 -7.44938 65 84 71
1.15298 -78.451 -7.85252 63 83 70
1.15307 -78.451 -7.81916 62 81 68
1.15315 -78.451 -7.78581 60 79 67
1.15324 -78.451 -7.75245 58 78 65
1.15333 -78.451 -7.7191 57 76 63
1.15341 -78.451 -7.68574 55 74 62
1.2304 -83.6811 -8.16255 54 73 60
1.23049 -83.6811 -8.12697 52 71 59
1.23058 -83.6811 -8.09139 50 69 57
1.23067 -83.6811 -8.05581 49 67 55
1.23077 -83.6811 -8.02023 47 65 54
1.23086 -83.6811 -7.98465 45 64 52
1.23095 -83.6811 -7.94908 44 62 51
1.23104 -83.6811 -7.9135 42 60 49
1.23629 -84.0312 -7.91088 41 59 48
1.23638 -84.0312 -7.87515 40 57 47
1.29047 -87.7007 -8.18176 39 56 46
1.29056 -87.7007 -8.14447 39 56 45
1.31947 -89.6583 -8.28815 38 55 45
1.31957 -89.6583 -8.25003 39 55 45
1.31967 -89.6583 -8.21191 39 55 45
1.31976 -89.6583 -8.17379 40 56 45
1.31986 -89.6583 -8.13567 41 57 46
1.31996 -89.6583 -8.09755 42 58 47
1.32006 -89.6583 -8.05943 43 59 48
1.32016 -89.6583 -8.02131 44 60 49
1.32026 -89.6583 -7.98319 46 61 50
1.32036 -89.6583 -7.94507 47 62 51
1.32046 -89.6583 -7.90695 48 63 52
1.32055 -89.6583 -7.86883 49 64 53
1.32065 -89.6583 -7.83071 50 65 54
1.32075 -89.6583 -7.79259 51 66 55
1.32085 -89.6583 -7.75447 52 67 56
1.32095 -89.6583 -7.71635 53 68 57
1.35121 -91.7053 -7.85353 54 69 58
1.35131 -91.7053 -7.81454 55 70 58
1.35141 -91.7053 -7.77555 55 71 59
1.35151 -91.7053 -7.73656 56 72 60
1.32144 -89.6583 -7.52575 57 73 60
1.32154 -89.6583 -7.48763 57 73 61
1.32164 -89.6583 -7.44951 58 74 62
1.32174 -89.6583 -7.41139 58 74 62
1.32184 -89.6583 -7.37327 59 75 63
1.32194 -89.6583 -7.33515 60 76 64
1.32203 -89.6583 -7.29703 61 77 64
1.32213 -89.6583 -7.25891 61 78 65
1.32223 -89.6583 -7.22079 62 78 66
1.32233 -89.6583 -7.18267 63 79 67
1.32322 -89.6583 -6.83959 73 90 77
1.32332 -89.6583 -6.80147 74 91 79
1.32935 -90.0604 -6.79368 76 93 80
1.32945 -90.0604 -6.75539 77 94 82
1.32955 -90.0604 -6.7171 79 96 83
1.32965 -90.0604 -6.67881 80 97 85
1.32975 -90.0604 -6.64052 81 99 86
1.32985 -90.0604 -6.60223 83 101 87
1.32401 -89.6583 -6.53464 84 102 89
1.32411 -89.6583 -6.49652 85 103 90
1.35444 -91.7053 -6.60585 86 104 91
1.35454 -91.7053 -6.56686 87 105 92
1.36187 -92.126 -6.16612 90 109 94
1.36197 -92.126 -6.12695 90 109 94
1.35585 -91.7053 -6.05999 89 109 93
1.35595 -91.7053 -6.021 89 108 93
1.33312 -90.0604 -5.33864 85 104 89
1.33322 -90.0604 -5.30034 85 104 89
1.32756 -89.6583 -5.16232 83 102 86
1.32766 -89.6583 -5.1242 82 101 85
1.23924 -83.6811 -4.74701 81 99 83
1.23933 -83.6811 -4.71143 79 98 82
1.23943 -83.6811 -4.67585 78 96 80
1.23952 -83.6811 -4.64028 76 93 77
1.23961 -83.6811 -4.6047 74 91 75
1.2397 -83.6811 -4.56912 72 89 73
1.23979 -83.6811 -4.53354 70 86 71
1.23989 -83.6811 -4.49796 69 84 68
1.23998 -83.6811 -4.46238 67 81 66
1.24007 -83.6811 -4.4268 64 79 63
1.24016 -83.6811 -4.39123 62 76 61
1.24025 -83.6811 -4.35565 60 74 58
1.24035 -83.6811 -4.32007 58 71 56
1.24044 -83.6811 -4.28449 56 69 54
1.24053 -83.6811 -4.24891 55 66 52
1.24062 -83.6811 -4.21333 53 64 50
1.24071 -83.6811 -4.17776 53 63 49
1.24081 -83.6811 -4.14218 52 62 48
1.2409 -83.6811 -4.1066 51 61 47
1.24099 -83.6811 -4.07102 51 61 47
1.24108 -83.6811 -4.03544 51 61 47
1.24118 -83.6811 -3.99986 52 61 48
1.24127 -83.6811 -3.96428 53 62 48
1.24136 -83.6811 -3.92871 54 63 50
1.24145 -83.6811 -3.89313 55 65 51
1.24154 -83.6811 -3.85755 57 66 53
1.24164 -83.6811 -3.82197 58 68 55
1.24173 -83.6811 -3.78639 60 70 57
1.24182 -83.6811 -3.75081 62 73 59
1.24191 -83.6811 -3.71523 63 75 61
1.242 -83.6811 -3.67966 65 77 62
1.2421 -83.6811 -3.64408 66 78 64
1.24219 -83.6811 -3.6085 68 80 65
1.24228 -83.6811 -3.57292 69 82 67
1.24237 -83.6811 -3.53734 70 83 68
1.24246 -83.6811 -3.50176 71 85 70
1.32539 -89.2598 -3.69726 73 86 71
1.32549 -89.2598 -3.65931 73 88 72
1.25923 -83.6713 -10.2973 79 98 86
1.25932 -83.6713 -10.2618 78 97 86
1.25941 -83.6713 -10.2262 78 97 85
1.2595 -83.6713 -10.1906 78 97 85
1.25959 -83.6713 -10.155 77 96 85
1.25969 -83.6713 -10.1195 77 96 85
1.25978 -83.6713 -10.0839 77 96 85
1.25987 -83.6713 -10.0483 77 96 84
1.25996 -83.6713 -10.0127 77 96 84
1.26005 -83.6713 -9.97714 77 96 84
1.23443 -81.9637 -9.73867 77 96 84
1.23452 -81.9637 -9.70382 77 96 84
1.23461 -81.9637 -9.66897 77 96 84
1.2347 -81.9637 -9.63411 77 96 84
1.18173 -78.4418 -9.18679 77 96 84
1.18182 -78.4418 -9.15344 78 96 84
1.18191 -78.4418 -9.12008 78 96 85
1.18199 -78.4418 -9.08673 78 97 85
1.18208 -78.4418 -9.05337 78 97 85
1.18217 -78.4418 -9.02002 79 97 85
1.18225 -78.4418 -8.98666 79 98 86
1.18234 -78.4418 -8.95331 80 98 86
1.18242 -78.4418 -8.91995 80 99 86
1.18251 -78.4418 -8.8866 80 99 87
1.1826 -78.4418 -8.85324 81 99 87
1.18268 -78.4418 -8.81989 81 100 87
1.18277 -78.4418 -8.78653 81 100 87
1.18286 -78.4418 -8.75318 81 100 87
1.18294 -78.4418 -8.71982 81 100 87
1.18303 -78.4418 -8.68647 81 100 87
1.18311 -78.4418 -8.65312 81 100 87
1.1832 -78.4418 -8.61976 81 100 87
1.18329 -78.4418 -8.58641 81 100 87
1.18337 -78.4418 -8.55305 80 99 87
1.18346 -78.4418 -8.5197 79 99 86
1.18355 -78.4418 -8.48634 79 98 85
1.18363 -78.4418 -8.45299 78 97 84
1.18372 -78.4418 -8.41963 77 96 84
1.1792 -78.1366 -8.35365 76 95 83
1.17929 -78.1366 -8.32042 76 94 82
1.11433 -73.8276 -7.83018 75 94 81
1.11441 -73.8276 -7.79879 75 93 81
1.1145 -73.8276 -7.76739 74 93 80
1.11458 -73.8276 -7.736 74 92 80
1.11466 -73.8276 -7.70461 73 92 79
1.11474 -73.8276 -7.67322 73 91 79
1.11482 -73.8276 -7.64182 72 91 78
1.1149 -73.8276 -7.61043 72 91 78
1.11498 -73.8276 -7.57904 71 90 77
1.11506 -73.8276 -7.54765 70 89 76
1.11515 -73.8276 -7.51625 69 88 75
1.11523 -73.8276 -7.48486 68 87 74
1.11942 -74.1 -7.48097 66 85 72
1.11951 -74.1 -7.44946 65 84 71
1.18519 -78.4418 -7.8526 63 82 69
1.18527 -78.4418 -7.81924 61 81 68
1.18536 -78.4418 -7.78589 60 79 66
1.18545 -78.4418 -7.75253 58 77 65
1.18553 -78.4418 -7.71918 57 76 63
1.18562 -78.4418 -7.68582 55 74 62
1.26475 -83.6713 -8.16263 54 73 60
1.26484 -83.6713 -8.12706 52 71 59
1.26494 -83.6713 -8.09148 51 70 58
1.26503 -83.6713 -8.0559 49 68 56
1.26512 -83.6713 -8.02032 48 66 54
1.26521 -83.6713 -7.98474 46 64 53
1.26531 -83.6713 -7.94916 45 63 51
1.2654 -83.6713 -7.91359 43 61 50
1.26549 -83.6713 -7.87801 42 60 49
1.26558 -83.6713 -7.84243 41 59 48
1.2926 -85.4515 -7.97295 41 58 47
1.2927 -85.4515 -7.93662 40 57 46
1.35628 -89.6478 -8.28824 40 56 46
1.35638 -89.6478 -8.25012 40 56 46
1.35647 -89.6478 -8.212 41 57 46
1.35657 -89.6478 -8.17388 42 57 47
1.35667 -89.6478 -8.13576 43 58 48
1.35677 -89.6478 -8.09764 44 59 48
1.35687 -89.6478 -8.05952 45 60 49
1.35697 -89.6478 -8.0214 46 61 50
1.35707 -89.6478 -7.98328 47 62 51
1.35716 -89.6478 -7.94516 48 63 52
1.35726 -89.6478 -7.90704 49 65 53
1.35736 -89.6478 -7.86892 50 66 54
1.35746 -89.6478 -7.8308 51 67 55
1.35756 -89.6478 -7.79268 52 67 56
1.35766 -89.6478 -7.75456 53 68 57
1.35776 -89.6478 -7.71645 54 69 57
1.35825 -89.6478 -7.52585 57 73 61
1.35835 -89.6478 -7.48773 58 73 61
1.35845 -89.6478 -7.44961 58 74 62
1.35855 -89.6478 -7.41149 59 75 62
1.35865 -89.6478 -7.37337 59 75 63
1.35874 -89.6478 -7.33525 60 76 64
1.35884 -89.6478 -7.29713 61 77 64
1.35894 -89.6478 -7.25901 61 77 65
1.35904 -89.6478 -7.22089 62 78 66
1.35914 -89.6478 -7.18277 63 79 67
1.39088 -91.6946 -7.07383 70 86 74
1.39098 -91.6946 -7.03484 71 88 75
1.36003 -89.6478 -6.83969 72 89 77
1.36013 -89.6478 -6.80157 74 91 78
1.36022 -89.6478 -6.76345 75 92 80
1.36032 -89.6478 -6.72533 77 94 81
1.36042 -89.6478 -6.68721 78 95 83
1.36052 -89.6478 -6.64909 80 97 84
1.36062 -89.6478 -6.61097 81 99 85
1.36072 -89.6478 -6.57285 82 100 87
1.36082 -89.6478 -6.53473 84 101 88
1.36091 -89.6478 -6.49661 85 103 89
1.36397 -89.6478 -5.3149 85 104 88
1.36407 -89.6478 -5.27678 85 104 88
1.36437 -89.6478 -5.16242 83 102 86
1.36447 -89.6478 -5.1243 82 100 84
1.2736 -83.6713 -4.7471 80 99 83
1.27369 -83.6713 -4.71152 79 97 81
1.27378 -83.6713 -4.67594 77 95 79
1.27387 -83.6713 -4.64036 76 93 77
1.27396 -83.6713 -4.60479 74 90 74
1.27406 -83.6713 -4.56921 72 88 72
1.27415 -83.6713 -4.53363 70 86 70
1.27424 -83.6713 -4.49805 68 83 68
1.27433 -83.6713 -4.46247 66 81 65
1.27442 -83.6713 -4.42689 64 79 63
1.27452 -83.6713 -4.39131 62 76 60
1.27461 -83.6713 -4.35574 60 73 58
1.2747 -83.6713 -4.32016 58 71 56
1.27479 -83.6713 -4.28458 56 68 53
1.27489 -83.6713 -4.249 54 66 51
1.27498 -83.6713 -4.21342 53 64 50
1.27507 -83.6713 -4.17784 52 62 48
1.27516 -83.6713 -4.14227 51 61 47
1.27525 -83.6713 -4.10669 51 61 47
1.27535 -83.6713 -4.07111 51 60 46
1.27544 -83.6713 -4.03553 51 60 46
1.27553 -83.6713 -3.99995 51 60 47
1.27562 -83.6713 -3.96437 52 61 48
1.27571 -83.6713 -3.92879 53 62 49
1.27581 -83.6713 -3.89322 54 64 50
1.2759 -83.6713 -3.85764 56 65 52
1.27599 -83.6713 -3.82206 57 67 54
1.27608 -83.6713 -3.78648 59 69 55
1.27617 -83.6713 -3.7509 61 71 57
1.27627 -83.6713 -3.71532 62 73 59
1.27636 -83.6713 -3.67974 64 75 61
1.27645 -83.6713 -3.64417 65 77 62
1.27654 -83.6713 -3.60859 66 78 64
1.27664 -83.6713 -3.57301 67 80 65
1.27673 -83.6713 -3.53743 69 81 66
1.27682 -83.6713 -3.50185 70 83 68
1.36812 -89.6478 -3.71386 71 84 69
1.36822 -89.6478 -3.67574 72 86 70
1.29358 -83.6615 -10.2974 78 98 86
1.29367 -83.6615 -10.2619 78 97 86
1.29376 -83.6615 -10.2263 78 97 85
1.29386 -83.6615 -10.1907 78 97 85
1.29395 -83.6615 -10.1551 77 96 85
1.29404 -83.6615 -10.1195 77 96 85
1.29413 -83.6615 -10.084 77 96 84
1.29423 -83.6615 -10.0484 77 96 84
1.29432 -83.6615 -10.0128 77 96 84
1.29441 -83.6615 -9.97723 77 96 84
1.28913 -83.3144 -9.9004 77 96 84
1.28922 -83.3144 -9.86497 77 96 84
1.28931 -83.3144 -9.82953 77 96 84
1.28941 -83.3144 -9.7941 77 96 84
1.21394 -78.4327 -9.18688 77 96 84
1.21403 -78.4327 -9.15352 78 96 84
1.21411 -78.4327 -9.12017 78 96 84
1.2142 -78.4327 -9.08681 78 97 85
1.21429 -78.4327 -9.05346 78 97 85
1.21437 -78.4327 -9.0201 79 97 85
1.21446 -78.4327 -8.98675 79 98 86
1.21455 -78.4327 -8.95339 79 98 86
1.21463 -78.4327 -8.92004 80 98 86
1.21472 -78.4327 -8.88668 80 99 86
1.2148 -78.4327 -8.85333 81 99 87
1.21489 -78.4327 -8.81997 81 99 87
1.21498 -78.4327 -8.78662 81 100 87
1.21506 -78.4327 -8.75326 81 100 87
1.21515 -78.4327 -8.71991 81 100 87
1.21524 -78.4327 -8.68655 81 100 87
1.21532 -78.4327 -8.6532 81 100 87
1.21541 -78.4327 -8.61984 81 100 87
1.21549 -78.4327 -8.58649 80 100 87
1.21558 -78.4327 -8.55313 80 99 86
1.21567 -78.4327 -8.51978 79 98 86
1.21575 -78.4327 -8.48642 78 97 85
1.21584 -78.4327 -8.45307 77 96 84
1.21593 -78.4327 -8.41971 76 95 83
1.19272 -76.9301 -8.2257 76 95 82
1.1928 -76.9301 -8.19299 75 94 81
1.14465 -73.819 -7.83026 74 93 81
1.14473 -73.819 -7.79887 74 92 80
1.14481 -73.819 -7.76747 73 92 80
1.14489 -73.819 -7.73608 73 91 79
1.14497 -73.819 -7.70469 72 91 78
1.14505 -73.819 -7.67329 72 90 78
1.14513 -73.819 -7.6419 72 90 77
1.14521 -73.819 -7.61051 71 90 77
1.1453 -73.819 -7.57912 70 89 76
1.14538 -73.819 -7.54772 70 88 75
1.14546 -73.819 -7.51633 68 87 74
1.14554 -73.819 -7.48494 67 86 73
1.16707 -75.2014 -7.59312 66 85 72
1.16716 -75.2014 -7.56114 64 83 70
1.21739 -78.4327 -7.85268 63 82 69
1.21748 -78.4327 -7.81933 61 80 67
1.21757 -78.4327 -7.78597 60 78 66
1.21765 -78.4327 -7.75262 58 77 65
1.21774 -78.4327 -7.71926 57 76 63
1.21783 -78.4327 -7.68591 56 74 62
1.29911 -83.6615 -8.16272 54 73 61
1.2992 -83.6615 -8.12714 53 72 59
1.29929 -83.6615 -8.09157 52 70 58
1.29938 -83.6615 -8.05599 50 69 57
1.29948 -83.6615 -8.02041 49 67 55
1.29957 -83.6615 -7.98483 47 65 54
1.29966 -83.6615 -7.94925 46 64 52
1.29975 -83.6615 -7.91367 45 62 51
1.29984 -83.6615 -7.8781 44 61 50
1.29994 -83.6615 -7.84252 43 60 49
1.30547 -84.0116 -7.8396 42 59 48
1.30556 -84.0116 -7.80388 42 58 48
1.39308 -89.6373 -8.28834 42 58 47
1.39318 -89.6373 -8.25022 42 58 47
1.39328 -89.6373 -8.2121 42 58 47
1.39338 -89.6373 -8.17398 43 59 48
1.39348 -89.6373 -8.13586 44 60 49
1.39358 -89.6373 -8.09774 45 61 50
1.39368 -89.6373 -8.05962 46 62 51
1.39378 -89.6373 -8.0215 47 63 52
1.39387 -89.6373 -7.98338 48 64 52
1.39397 -89.6373 -7.94526 49 65 53
1.39407 -89.6373 -7.90714 50 66 54
1.39417 -89.6373 -7.86902 51 67 55
1.39427 -89.6373 -7.8309 52 68 56
1.39437 -89.6373 -7.79278 53 68 57
1.39447 -89.6373 -7.75466 54 69 57
1.39457 -89.6373 -7.71654 54 70 58
1.39506 -89.6373 -7.52594 57 73 61
1.39516 -89.6373 -7.48782 58 74 61
1.39526 -89.6373 -7.4497 58 74 62
1.39535 -89.6373 -7.41158 59 75 62
1.39545 -89.6373 -7.37346 59 75 63
1.39555 -89.6373 -7.33534 60 76 64
1.39565 -89.6373 -7.29722 61 77 64
1.39575 -89.6373 -7.2591 61 77 65
1.39585 -89.6373 -7.22098 62 78 66
1.39595 -89.6373 -7.18286 63 79 66
1.4029 -90.0393 -6.94704 69 86 74
1.403 -90.0393 -6.90875 71 87 75
1.39684 -89.6373 -6.83978 72 89 76
1.39693 -89.6373 -6.80166 73 90 78
1.39703 -89.6373 -6.76354 75 92 79
1.39713 -89.6373 -6.72542 76 93 81
1.39723 -89.6373 -6.6873 78 95 82
1.39733 -89.6373 -6.64919 79 97 83
1.39743 -89.6373 -6.61107 81 98 85
1.39753 -89.6373 -6.57295 82 100 86
1.39762 -89.6373 -6.53483 83 101 87
1.39772 -89.6373 -6.49671 84 102 89
1.40078 -89.6373 -5.31499 84 103 88
1.40088 -89.6373 -5.27687 84 103 87
1.40118 -89.6373 -5.16251 82 101 85
1.40128 -89.6373 -5.12439 81 99 83
1.30795 -83.6615 -4.74719 80 98 82
1.30804 -83.6615 -4.71161 78 96 80
1.30813 -83.6615 -4.67603 77 94 78
1.30823 -83.6615 -4.64045 75 92 76
1.30832 -83.6615 -4.60487 73 90 74
1.30841 -83.6615 -4.5693 71 87 71
1.3085 -83.6615 -4.53372 69 85 69
1.30859 -83.6615 -4.49814 68 83 67
1.30869 -83.6615 -4.46256 66 80 65
1.30878 -83.6615 -4.42698 64 78 62
1.30887 -83.6615 -4.3914 62 76 60
1.30896 -83.6615 -4.35582 60 73 58
1.30906 -83.6615 -4.32025 58 70 55
1.30915 -83.6615 -4.28467 56 68 53
1.30924 -83.6615 -4.24909 54 66 51
1.30933 -83.6615 -4.21351 53 64 49
1.30942 -83.6615 -4.17793 52 62 48
1.30952 -83.6615 -4.14235 51 61 47
1.30961 -83.6615 -4.10677 50 60 46
1.3097 -83.6615 -4.0712 50 60 46
1.30979 -83.6615 -4.03562 50 60 46
1.30988 -83.6615 -4.00004 51 60 46
1.30998 -83.6615 -3.96446 51 60 47
1.31007 -83.6615 -3.92888 52 61 48
1.31016 -83.6615 -3.8933 54 63 49
1.31025 -83.6615 -3.85773 55 64 51
1.31034 -83.6615 -3.82215 56 66 52
1.31044 -83.6615 -3.78657 58 68 54
1.31053 -83.6615 -3.75099 59 70 56
1.31062 -83.6615 -3.71541 61 72 58
1.31071 -83.6615 -3.67983 62 74 59
1.31081 -83.6615 -3.64425 64 75 61
1.3109 -83.6615 -3.60868 65 77 62
1.31099 -83.6615 -3.5731 66 78 63
1.31108 -83.6615 -3.53752 67 80 65
1.31117 -83.6615 -3.50194 68 81 66
1.40493 -89.6373 -3.71396 69 82 67
1.40503 -89.6373 -3.67584 70 84 68
1.26624 -80.315 -0.458658 38 47 37
1.26633 -80.315 -0.424503 36 45 36
1.41646 -89.2285 -10.984 78 98 86
1.41656 -89.2285 -10.9461 78 97 86
1.32812 -83.6517 -10.2264 78 97 85
1.32821 -83.6517 -10.1908 77 96 85
1.3283 -83.6517 -10.1552 77 96 85
1.3284 -83.6517 -10.1196 77 96 84
1.32849 -83.6517 -10.0841 77 96 84
1.32858 -83.6517 -10.0485 77 96 84
1.32867 -83.6517 -10.0129 77 96 84
1.32876 -83.6517 -9.97731 77 95 84
1.32886 -83.6517 -9.94174 77 95 84
1.32895 -83.6517 -9.90616 77 95 84
1.32904 -83.6517 -9.87058 77 96 84
1.32913 -83.6517 -9.835 77 96 84
1.24615 -78.4235 -9.18696 77 96 84
1.24623 -78.4235 -9.1536 77 96 84
1.24632 -78.4235 -9.12025 78 96 84
1.24641 -78.4235 -9.08689 78 97 85
1.24649 -78.4235 -9.05354 78 97 85
1.24658 -78.4235 -9.02018 79 97 85
1.24667 -78.4235 -8.98683 79 97 85
1.24675 -78.4235 -8.95347 79 98 86
1.24684 -78.4235 -8.92012 80 98 86
1.24693 -78.4235 -8.88676 80 99 86
1.24701 -78.4235 -8.85341 80 99 87
1.2471 -78.4235 -8.82006 81 99 87
1.24718 -78.4235 -8.7867 81 100 87
1.24727 -78.4235 -8.75335 81 100 87
1.24736 -78.4235 -8.71999 81 100 87
1.24744 -78.4235 -8.68664 81 100 87
1.24753 -78.4235 -8.65328 81 100 87
1.24762 -78.4235 -8.61993 81 100 87
1.2477 -78.4235 -8.58657 80 99 86
1.24779 -78.4235 -8.55322 80 99 86
1.24787 -78.4235 -8.51986 79 98 85
1.24796 -78.4235 -8.48651 78 97 84
1.24805 -78.4235 -8.45315 77 96 84
1.24813 -78.4235 -8.4198 76 95 83
1.1968 -75.1926 -8.04093 75 94 82
1.19688 -75.1926 -8.00895 74 93 81
1.17496 -73.8103 -7.83034 74 92 80
1.17504 -73.8103 -7.79894 73 92 80
1.17512 -73.8103 -7.76755 73 91 79
1.1752 -73.8103 -7.73616 72 91 78
1.17528 -73.8103 -7.70477 72 90 78
1.17536 -73.8103 -7.67337 71 90 77
1.17545 -73.8103 -7.64198 71 89 77
1.17553 -73.8103 -7.61059 70 89 76
1.17561 -73.8103 -7.57919 70 88 76
1.17569 -73.8103 -7.5478 69 88 75
1.17577 -73.8103 -7.51641 68 87 74
1.17585 -73.8103 -7.48502 66 85 73
1.22549 -76.9211 -7.76776 65 84 71
1.22558 -76.9211 -7.73504 64 83 70
1.2496 -78.4235 -7.85276 62 81 69
1.24969 -78.4235 -7.81941 61 80 67
1.24977 -78.4235 -7.78606 59 78 66
1.24986 -78.4235 -7.7527 58 77 65
1.24995 -78.4235 -7.71935 57 76 63
1.25003 -78.4235 -7.68599 56 74 62
1.32793 -83.3046 -8.12894 55 73 61
1.32802 -83.3046 -8.09351 54 72 60
1.33365 -83.6517 -8.09165 52 71 59
1.33374 -83.6517 -8.05608 51 69 57
1.33383 -83.6517 -8.0205 50 68 56
1.33392 -83.6517 -7.98492 48 66 55
1.33401 -83.6517 -7.94934 47 65 53
1.33411 -83.6517 -7.91376 46 64 52
1.3342 -83.6517 -7.87818 45 62 51
1.33429 -83.6517 -7.84261 44 61 50
1.33438 -83.6517 -7.80703 44 61 49
1.33447 -83.6517 -7.77145 43 60 49
1.42989 -89.6268 -8.28843 43 59 49
1.42999 -89.6268 -8.25031 44 59 49
1.43009 -89.6268 -8.21219 44 60 49
1.43019 -89.6268 -8.17407 45 60 49
1.43029 -89.6268 -8.13595 46 61 50
1.43039 -89.6268 -8.09783 47 62 51
1.43049 -89.6268 -8.05971 48 63 52
1.43058 -89.6268 -8.02159 49 64 53
1.43068 -89.6268 -7.98347 50 65 54
1.43078 -89.6268 -7.94535 51 66 54
1.43088 -89.6268 -7.90723 51 67 55
1.43098 -89.6268 -7.86911 52 68 56
1.43108 -89.6268 -7.83099 53 69 57
1.43118 -89.6268 -7.79287 54 69 57
1.43769 -90.0288 -7.78953 54 70 58
1.43779 -90.0288 -7.75124 55 71 59
1.43187 -89.6268 -7.52604 57 73 61
1.43197 -89.6268 -7.48792 58 74 62
1.43206 -89.6268 -7.4498 58 74 62
1.43216 -89.6268 -7.41168 59 75 62
1.43226 -89.6268 -7.37356 59 75 63
1.43236 -89.6268 -7.33544 60 76 64
1.43246 -89.6268 -7.29732 60 77 64
1.43256 -89.6268 -7.2592 61 77 65
1.43266 -89.6268 -7.22108 62 78 66
1.43276 -89.6268 -7.18296 62 79 66
1.43345 -89.6268 -6.91612 69 86 73
1.43354 -89.6268 -6.878 70 87 75
1.43364 -89.6268 -6.83988 72 89 76
1.43374 -89.6268 -6.80176 73 90 77
1.43384 -89.6268 -6.76364 75 92 79
1.43394 -89.6268 -6.72552 76 93 80
1.43404 -89.6268 -6.6874 77 95 82
1.43414 -89.6268 -6.64928 79 96 83
1.43424 -89.6268 -6.61116 80 98 84
1.43433 -89.6268 -6.57304 82 99 86
1.43443 -89.6268 -6.53492 83 100 87
1.43453 -89.6268 -6.4968 84 102 88
1.43759 -89.6268 -5.31509 84 102 87
1.43769 -89.6268 -5.27697 84 102 86
1.43799 -89.6268 -5.16261 82 100 84
1.43808 -89.6268 -5.12449 80 99 82
1.3423 -83.6517 -4.74728 79 97 81
1.3424 -83.6517 -4.7117 78 95 79
1.34249 -83.6517 -4.67612 76 93 77
1.34258 -83.6517 -4.64054 74 91 75
1.34267 -83.6517 -4.60496 73 89 73
1.34276 -83.6517 -4.56938 71 87 71
1.34286 -83.6517 -4.53381 69 84 68
1.34295 -83.6517 -4.49823 67 82 66
1.34304 -83.6517 -4.46265 65 80 64
1.34313 -83.6517 -4.42707 63 78 62
1.34323 -83.6517 -4.39149 61 75 59
1.34332 -83.6517 -4.35591 59 73 57
1.34341 -83.6517 -4.32033 57 70 55
1.3435 -83.6517 -4.28476 55 68 53
1.33802 -83.3046 -4.23155 54 65 51
1.33811 -83.3046 -4.19612 52 64 49
1.3382 -83.3046 -4.16068 51 62 48
1.33829 -83.3046 -4.12525 51 61 46
1.33839 -83.3046 -4.08982 50 60 46
1.33848 -83.3046 -4.05439 50 59 45
1.34415 -83.6517 -4.03571 50 59 45
1.34424 -83.6517 -4.00013 50 59 46
1.34433 -83.6517 -3.96455 51 60 46
1.34442 -83.6517 -3.92897 52 61 47
1.34452 -83.6517 -3.89339 53 62 48
1.34461 -83.6517 -3.85781 54 64 50
1.3447 -83.6517 -3.82224 55 65 51
1.34479 -83.6517 -3.78666 57 67 53
1.34488 -83.6517 -3.75108 58 69 55
1.34498 -83.6517 -3.7155 60 71 56
1.34507 -83.6517 -3.67992 61 72 58
1.34516 -83.6517 -3.64434 62 74 59
1.34525 -83.6517 -3.60876 63 75 60
1.34534 -83.6517 -3.57319 65 76 62
1.34544 -83.6517 -3.53761 66 78 63
1.34553 -83.6517 -3.50203 67 79 64
1.44174 -89.6268 -3.71405 68 81 65
1.44183 -89.6268 -3.67593 69 82 66
1.36247 -83.6419 -10.2265 78 97 85
1.36257 -83.6419 -10.1909 77 96 85
1.36266 -83.6419 -10.1553 77 96 85
1.36275 -83.6419 -10.1197 77 96 84
1.36284 -83.6419 -10.0841 77 96 84
1.36293 -83.6419 -10.0486 77 95 84
1.36303 -83.6419 -10.013 77 95 84
1.36312 -83.6419 -9.9774 77 95 84
1.36321 -83.6419 -9.94182 77 95 84
1.3633 -83.6419 -9.90625 77 95 84
1.36339 -83.6419 -9.87067 77 95 84
1.36349 -83.6419 -9.83509 77 96 84
1.27836 -78.4143 -9.18704 77 96 84
1.27844 -78.4143 -9.15369 77 96 84
1.27853 -78.4143 -9.12033 78 96 84
1.27861 -78.4143 -9.08698 78 96 85
1.2787 -78.4143 -9.05362 78 97 85
1.27879 -78.4143 -9.02027 79 97 85
1.27887 -78.4143 -8.98691 79 97 85
1.27896 -78.4143 -8.95356 79 98 86
1.27905 -78.4143 -8.9202 80 98 86
1.27913 -78.4143 -8.88685 80 99 86
1.27922 -78.4143 -8.85349 80 99 87
1.27931 -78.4143 -8.82014 81 99 87
1.27939 -78.4143 -8.78678 81 99 87
1.27948 -78.4143 -8.75343 81 100 87
1.27956 -78.4143 -8.72007 81 100 87
1.27965 -78.4143 -8.68672 81 100 87
1.27974 -78.4143 -8.65336 81 100 87
1.27982 -78.4143 -8.62001 81 99 87
1.27991 -78.4143 -8.58665 80 99 86
1.28 -78.4143 -8.5533 79 99 86
1.28008 -78.4143 -8.51994 79 98 85
1.28017 -78.4143 -8.48659 78 97 84
1.28025 -78.4143 -8.45323 76 96 83
1.28034 -78.4143 -8.41988 75 94 82
1.20956 -74.074 -7.92233 75 93 81
1.20964 -74.074 -7.89082 74 93 80
1.20527 -73.8017 -7.83041 73 92 80
1.20535 -73.8017 -7.79902 73 91 79
1.20543 -73.8017 -7.76763 72 90 78
1.20551 -73.8017 -7.73624 72 90 78
1.2056 -73.8017 -7.70484 71 89 77
1.20568 -73.8017 -7.67345 71 89 77
1.20576 -73.8017 -7.64206 70 89 76
1.20584 -73.8017 -7.61067 70 88 76
1.20592 -73.8017 -7.57927 69 88 75
1.206 -73.8017 -7.54788 68 87 74
1.20608 -73.8017 -7.51649 67 86 73
1.20616 -73.8017 -7.48509 66 85 72
1.27665 -78.1092 -7.88874 65 83 71
1.27674 -78.1092 -7.85552 63 82 70
1.28181 -78.4143 -7.85285 62 81 68
1.2819 -78.4143 -7.81949 61 79 67
1.28198 -78.4143 -7.78614 60 78 66
1.28207 -78.4143 -7.75278 58 77 65
1.28215 -78.4143 -7.71943 57 76 63
1.28224 -78.4143 -7.68607 57 75 63
1.3399 -81.9349 -7.99631 56 74 62
1.33999 -81.9349 -7.96146 55 73 61
1.368 -83.6419 -8.09174 53 72 59
1.36809 -83.6419 -8.05616 52 70 58
1.36818 -83.6419 -8.02059 51 69 57
1.36828 -83.6419 -7.98501 50 68 56
1.36837 -83.6419 -7.94943 48 66 54
1.36846 -83.6419 -7.91385 47 65 53
1.36855 -83.6419 -7.87827 47 64 52
1.36864 -83.6419 -7.84269 46 63 51
1.36874 -83.6419 -7.80712 45 62 51
1.36883 -83.6419 -7.77154 45 61 50
1.4667 -89.6163 -8.28853 45 61 50
1.4668 -89.6163 -8.25041 45 61 50
1.4669 -89.6163 -8.21229 46 61 50
1.467 -89.6163 -8.17417 47 62 51
1.4671 -89.6163 -8.13605 48 63 51
1.46719 -89.6163 -8.09793 48 64 52
1.46729 -89.6163 -8.05981 49 65 53
1.46739 -89.6163 -8.02169 50 66 54
1.46749 -89.6163 -7.98357 51 66 55
1.46759 -89.6163 -7.94545 52 67 55
1.46769 -89.6163 -7.90733 52 68 56
1.46779 -89.6163 -7.86921 53 69 57
1.46789 -89.6163 -7.83109 54 69 57
1.46798 -89.6163 -7.79297 54 70 58
1.5016 -91.6624 -7.9319 55 71 59
1.5017 -91.6624 -7.89291 56 71 59
1.46868 -89.6163 -7.52613 58 74 61
1.46877 -89.6163 -7.48801 58 74 62
1.46887 -89.6163 -7.44989 58 74 62
1.46897 -89.6163 -7.41177 59 75 63
1.46907 -89.6163 -7.37365 59 75 63
1.46917 -89.6163 -7.33553 60 76 64
1.46927 -89.6163 -7.29741 60 76 64
1.46937 -89.6163 -7.25929 61 77 65
1.46946 -89.6163 -7.22117 62 78 65
1.46956 -89.6163 -7.18305 62 79 66
1.47025 -89.6163 -6.91621 69 85 73
1.47035 -89.6163 -6.87809 70 87 74
1.47045 -89.6163 -6.83997 71 88 76
1.47055 -89.6163 -6.80185 73 90 77
1.47065 -89.6163 -6.76373 74 91 78
1.47075 -89.6163 -6.72561 76 93 80
1.47085 -89.6163 -6.68749 77 94 81
1.47095 -89.6163 -6.64937 78 96 82
1.47104 -89.6163 -6.61125 80 97 84
1.47114 -89.6163 -6.57313 81 99 85
1.47124 -89.6163 -6.53502 82 100 86
1.47134 -89.6163 -6.4969 83 101 87
1.4744 -89.6163 -5.31518 83 102 86
1.4745 -89.6163 -5.27706 83 101 85
1.47479 -89.6163 -5.1627 81 99 83
1.47489 -89.6163 -5.12458 80 98 81
1.37666 -83.6419 -4.74736 78 96 80
1.37675 -83.6419 -4.71179 77 94 78
1.37684 -83.6419 -4.67621 75 92 76
1.37694 -83.6419 -4.64063 74 90 74
1.37703 -83.6419 -4.60505 72 88 72
1.37712 -83.6419 -4.56947 70 86 70
1.37721 -83.6419 -4.53389 69 84 68
1.3773 -83.6419 -4.49832 67 82 66
1.3774 -83.6419 -4.46274 65 79 63
1.37749 -83.6419 -4.42716 63 77 61
1.37758 -83.6419 -4.39158 61 75 59
1.37767 -83.6419 -4.356 59 72 57
1.37776 -83.6419 -4.32042 57 70 54
1.37786 -83.6419 -4.28484 55 68 52
1.34983 -81.9349 -4.16255 54 65 50
1.34992 -81.9349 -4.12769 52 63 49
1.35001 -81.9349 -4.09284 51 62 47
1.3501 -81.9349 -4.05799 50 61 46
1.35019 -81.9349 -4.02314 50 60 45
1.35028 -81.9349 -3.98828 50 59 45
1.3785 -83.6419 -4.03579 50 59 45
1.37859 -83.6419 -4.00022 50 59 45
1.37869 -83.6419 -3.96464 50 59 46
1.37878 -83.6419 -3.92906 51 60 47
1.37887 -83.6419 -3.89348 52 62 48
1.37896 -83.6419 -3.8579 54 63 49
1.37905 -83.6419 -3.82232 55 64 50
1.37915 -83.6419 -3.78675 56 66 52
1.37924 -83.6419 -3.75117 57 68 53
1.37933 -83.6419 -3.71559 59 69 55
1.37942 -83.6419 -3.68001 60 71 56
1.37951 -83.6419 -3.64443 61 72 58
1.37961 -83.6419 -3.60885 62 74 59
1.3797 -83.6419 -3.57327 63 75 60
1.37979 -83.6419 -3.5377 64 76 61
1.37988 -83.6419 -3.50212 65 78 62
1.47854 -89.6163 -3.71415 66 79 63
1.47864 -89.6163 -3.67603 67 80 64
1.39683 -83.6321 -10.2265 77 96 85
1.39692 -83.6321 -10.191 77 96 85
1.39701 -83.6321 -10.1554 77 96 84
1.3971 -83.6321 -10.1198 77 96 84
1.3972 -83.6321 -10.0842 77 96 84
1.39729 -83.6321 -10.0486 77 95 84
1.39738 -83.6321 -10.0131 77 95 84
1.39747 -83.6321 -9.97749 77 95 84
1.39756 -83.6321 -9.94191 77 95 84
1.39766 -83.6321 -9.90633 77 95 84
1.39775 -83.6321 -9.87076 77 95 84
1.39784 -83.6321 -9.83518 77 95 84
1.3157 -78.7126 -9.22315 77 96 84
1.31579 -78.7126 -9.18967 77 96 84
1.31588 -78.7126 -9.15618 78 96 84
1.31596 -78.7126 -9.1227 78 96 85
1.31091 -78.4051 -9.0537 78 97 85
1.31099 -78.4051 -9.02035 78 97 85
1.31108 -78.4051 -8.987 79 97 85
1.31117 -78.4051 -8.95364 79 98 86
1.31125 -78.4051 -8.92029 80 98 86
1.31134 -78.4051 -8.88693 80 98 86
1.31143 -78.4051 -8.85358 80 99 86
1.31151 -78.4051 -8.82022 80 99 87
1.3116 -78.4051 -8.78687 81 99 87
1.31169 -78.4051 -8.75351 81 99 87
1.31177 -78.4051 -8.72016 81 100 87
1.31186 -78.4051 -8.6868 81 99 87
1.31194 -78.4051 -8.65345 81 99 87
1.31203 -78.4051 -8.62009 80 99 86
1.31212 -78.4051 -8.58674 80 99 86
1.3122 -78.4051 -8.55338 79 98 86
1.31229 -78.4051 -8.52003 78 98 85
1.31238 -78.4051 -8.48667 77 96 84
1.30736 -78.1 -8.42043 76 95 83
1.30744 -78.1 -8.3872 75 94 82
1.23542 -73.7931 -7.89328 74 93 81
1.2355 -73.7931 -7.86189 73 92 80
1.23558 -73.7931 -7.83049 73 91 79
1.23566 -73.7931 -7.7991 72 90 78
1.23575 -73.7931 -7.76771 71 90 78
1.23583 -73.7931 -7.73631 71 89 77
1.23591 -73.7931 -7.70492 70 89 77
1.23599 -73.7931 -7.67353 70 88 76
1.23607 -73.7931 -7.64214 70 88 75
1.23615 -73.7931 -7.61074 69 87 75
1.23623 -73.7931 -7.57935 69 87 74
1.23632 -73.7931 -7.54796 68 86 74
1.2364 -73.7931 -7.51656 67 85 73
1.23648 -73.7931 -7.48517 65 84 72
1.31384 -78.4051 -7.91964 64 83 70
1.31393 -78.4051 -7.88629 63 82 69
1.31402 -78.4051 -7.85293 62 81 68
1.3141 -78.4051 -7.81958 61 79 67
1.31419 -78.4051 -7.78622 60 78 66
1.31428 -78.4051 -7.75287 59 77 65
1.31436 -78.4051 -7.71951 58 76 64
1.31445 -78.4051 -7.68616 57 75 63
1.34072 -79.967 -7.80525 56 74 62
1.34081 -79.967 -7.77123 55 74 61
1.40235 -83.6321 -8.09183 54 73 60
1.40245 -83.6321 -8.05625 53 71 59
1.40254 -83.6321 -8.02067 52 70 58
1.40263 -83.6321 -7.9851 51 69 57
1.40272 -83.6321 -7.94952 50 67 55
1.40282 -83.6321 -7.91394 49 66 54
1.40291 -83.6321 -7.87836 48 65 53
1.403 -83.6321 -7.84278 47 64 53
1.40309 -83.6321 -7.8072 47 64 52
1.40318 -83.6321 -7.77163 47 63 52
1.50351 -89.6059 -8.28862 47 63 51
1.50361 -89.6059 -8.2505 47 63 51
1.50371 -89.6059 -8.21238 47 63 52
1.50381 -89.6059 -8.17426 48 64 52
1.5039 -89.6059 -8.13614 49 64 53
1.504 -89.6059 -8.09802 50 65 53
1.5041 -89.6059 -8.0599 51 66 54
1.5042 -89.6059 -8.02178 51 67 55
1.5043 -89.6059 -7.98366 52 68 56
1.5044 -89.6059 -7.94554 53 68 56
1.5045 -89.6059 -7.90742 53 69 57
1.5046 -89.6059 -7.8693 54 70 57
1.50469 -89.6059 -7.83118 55 70 58
1.50479 -89.6059 -7.79306 55 71 59
1.53945 -91.6517 -7.85402 56 72 60
1.53955 -91.6517 -7.81503 57 73 60
1.50548 -89.6059 -7.52623 58 74 62
1.50558 -89.6059 -7.48811 58 74 62
1.50568 -89.6059 -7.44999 58 74 62
1.50578 -89.6059 -7.41187 59 75 63
1.50588 -89.6059 -7.37375 59 75 63
1.50598 -89.6059 -7.33563 60 76 63
1.50608 -89.6059 -7.29751 60 76 64
1.50617 -89.6059 -7.25939 61 77 65
1.51303 -90.0077 -7.25365 62 78 65
1.51313 -90.0077 -7.21536 62 78 66
1.50706 -89.6059 -6.91631 69 85 73
1.50716 -89.6059 -6.87819 70 87 74
1.50726 -89.6059 -6.84007 71 88 75
1.50736 -89.6059 -6.80195 73 89 76
1.50746 -89.6059 -6.76383 74 91 78
1.50756 -89.6059 -6.72571 75 92 79
1.50765 -89.6059 -6.68759 77 94 81
1.50775 -89.6059 -6.64947 78 95 82
1.50785 -89.6059 -6.61135 79 97 83
1.50795 -89.6059 -6.57323 81 98 84
1.50805 -89.6059 -6.53511 82 99 86
1.50815 -89.6059 -6.49699 83 101 87
1.51798 -90.0077 -5.33911 83 101 85
1.51808 -90.0077 -5.30082 82 100 84
1.54591 -91.6517 -5.35865 82 100 84
1.54601 -91.6517 -5.31966 81 99 83
1.50488 -89.2076 -5.13985 80 98 82
1.50498 -89.2076 -5.1019 79 97 80
1.41101 -83.6321 -4.74745 78 95 79
1.41111 -83.6321 -4.71187 76 93 77
1.4112 -83.6321 -4.6763 75 91 75
1.41129 -83.6321 -4.64072 73 89 73
1.41138 -83.6321 -4.60514 71 87 71
1.41147 -83.6321 -4.56956 70 85 69
1.41157 -83.6321 -4.53398 68 83 67
1.41166 -83.6321 -4.4984 66 81 65
1.41175 -83.6321 -4.46283 65 79 63
1.41184 -83.6321 -4.42725 63 77 61
1.41193 -83.6321 -4.39167 61 75 59
1.41203 -83.6321 -4.35609 59 72 56
1.41212 -83.6321 -4.32051 57 70 54
1.41221 -83.6321 -4.28493 55 67 52
1.35041 -79.967 -4.06313 54 65 50
1.3505 -79.967 -4.02911 52 63 48
1.35059 -79.967 -3.99509 51 62 47
1.35067 -79.967 -3.96107 50 60 46
1.35076 -79.967 -3.92705 50 60 45
1.35085 -79.967 -3.89303 49 59 45
1.41286 -83.6321 -4.03588 49 59 45
1.41295 -83.6321 -4.0003 50 59 45
1.41304 -83.6321 -3.96473 50 59 45
1.41313 -83.6321 -3.92915 51 60 46
1.41322 -83.6321 -3.89357 52 61 47
1.41332 -83.6321 -3.85799 53 62 48
1.41341 -83.6321 -3.82241 54 64 50
1.4135 -83.6321 -3.78683 55 65 51
1.41359 -83.6321 -3.75126 57 67 52
1.41368 -83.6321 -3.71568 58 68 54
1.41378 -83.6321 -3.6801 59 70 55
1.41387 -83.6321 -3.64452 60 71 56
1.41396 -83.6321 -3.60894 61 72 57
1.41405 -83.6321 -3.57336 62 74 59
1.41415 -83.6321 -3.53778 63 75 60
1.41424 -83.6321 -3.50221 64 76 61
1.51535 -89.6059 -3.71424 65 77 62
1.51545 -89.6059 -3.67612 66 79 63
1.43118 -83.6223 -10.2266 77 96 85
1.43127 -83.6223 -10.1911 77 96 84
1.43137 -83.6223 -10.1555 77 96 84
1.43146 -83.6223 -10.1199 77 96 84
1.43155 -83.6223 -10.0843 77 95 84
1.43164 -83.6223 -10.0487 77 95 84
1.43173 -83.6223 -10.0132 76 95 84
1.43183 -83.6223 -9.97758 76 95 84
1.43192 -83.6223 -9.942 77 95 84
1.43201 -83.6223 -9.90642 77 95 84
1.4321 -83.6223 -9.87084 77 95 84
1.4322 -83.6223 -9.83527 77 95 84
1.36952 -79.9576 -9.37022 77 96 84
1.36961 -79.9576 -9.3362 77 96 84
1.36969 -79.9576 -9.30218 78 96 84
1.36978 -79.9576 -9.26816 78 96 84
1.34312 -78.3959 -9.05379 78 97 85
1.3432 -78.3959 -9.02043 78 97 85
1.34329 -78.3959 -8.98708 79 97 85
1.34337 -78.3959 -8.95372 79 98 86
1.34346 -78.3959 -8.92037 80 98 86
1.34355 -78.3959 -8.88701 80 98 86
1.34363 -78.3959 -8.85366 80 99 86
1.34372 -78.3959 -8.8203 80 99 87
1.34381 -78.3959 -8.78695 81 99 87
1.34389 -78.3959 -8.75359 81 99 87
1.34398 -78.3959 -8.72024 81 99 87
1.34407 -78.3959 -8.68688 81 99 87
1.34415 -78.3959 -8.65353 81 99 87
1.34424 -78.3959 -8.62017 80 99 86
1.34432 -78.3959 -8.58682 80 99 86
1.34441 -78.3959 -8.55347 79 98 85
1.3445 -78.3959 -8.52011 78 97 85
1.34458 -78.3959 -8.48676 77 96 84
1.31891 -76.8941 -8.29146 76 95 82
1.31899 -76.8941 -8.25874 75 94 81
1.26573 -73.7844 -7.89336 74 92 80
1.26582 -73.7844 -7.86196 73 91 79
1.2659 -73.7844 -7.83057 72 91 79
1.26598 -73.7844 -7.79918 72 90 78
1.26606 -73.7844 -7.76779 71 89 77
1.26614 -73.7844 -7.73639 70 89 77
1.26622 -73.7844 -7.705 70 88 76
1.2663 -73.7844 -7.67361 69 88 75
1.26638 -73.7844 -7.64221 69 87 75
1.26647 -73.7844 -7.61082 69 87 74
1.26655 -73.7844 -7.57943 68 86 74
1.26663 -73.7844 -7.54804 67 86 73
1.26671 -73.7844 -7.51664 66 85 72
1.26679 -73.7844 -7.48525 65 84 71
1.34605 -78.3959 -7.91972 64 83 70
1.34614 -78.3959 -7.88637 63 81 69
1.34622 -78.3959 -7.85301 62 80 68
1.34631 -78.3959 -7.81966 61 79 67
1.3464 -78.3959 -7.7863 60 78 66
1.34648 -78.3959 -7.75295 59 77 65
1.34657 -78.3959 -7.71959 58 76 64
1.34666 -78.3959 -7.68624 58 76 63
1.35202 -78.7034 -7.6829 57 75 63
1.35211 -78.7034 -7.64941 56 74 62
1.43671 -83.6223 -8.09192 55 74 61
1.4368 -83.6223 -8.05634 54 73 60
1.43689 -83.6223 -8.02076 53 71 59
1.43699 -83.6223 -7.98518 52 70 58
1.43708 -83.6223 -7.94961 51 69 57
1.43717 -83.6223 -7.91403 50 68 56
1.43726 -83.6223 -7.87845 50 67 55
1.43735 -83.6223 -7.84287 49 66 54
1.43745 -83.6223 -7.80729 48 65 53
1.43754 -83.6223 -7.77171 48 65 53
1.54032 -89.5954 -8.28872 48 64 53
1.54042 -89.5954 -8.2506 48 64 53
1.54052 -89.5954 -8.21248 49 65 53
1.54061 -89.5954 -8.17436 50 65 53
1.54071 -89.5954 -8.13624 50 66 54
1.54081 -89.5954 -8.09812 51 67 55
1.54091 -89.5954 -8.06 52 67 55
1.54101 -89.5954 -8.02188 52 68 56
1.54111 -89.5954 -7.98376 53 69 56
1.54121 -89.5954 -7.94564 54 69 57
1.5413 -89.5954 -7.90752 54 70 58
1.5414 -89.5954 -7.8694 55 70 58
1.5415 -89.5954 -7.83128 55 71 59
1.5416 -89.5954 -7.79316 56 71 59
1.54881 -89.9971 -7.71323 57 73 60
1.54891 -89.9971 -7.67494 57 73 61
1.54229 -89.5954 -7.52632 58 74 62
1.54239 -89.5954 -7.4882 58 74 62
1.54249 -89.5954 -7.45008 58 74 62
1.54259 -89.5954 -7.41196 59 75 62
1.54269 -89.5954 -7.37384 59 75 63
1.54279 -89.5954 -7.33572 60 76 63
1.54288 -89.5954 -7.2976 60 76 64
1.54298 -89.5954 -7.25948 61 77 65
1.57831 -91.6409 -7.38623 61 78 65
1.57841 -91.6409 -7.34724 62 78 66
1.54387 -89.5954 -6.9164 68 85 72
1.54397 -89.5954 -6.87828 70 86 73
1.54407 -89.5954 -6.84016 71 88 75
1.54417 -89.5954 -6.80204 72 89 76
1.54427 -89.5954 -6.76392 74 90 77
1.54436 -89.5954 -6.7258 75 92 79
1.54446 -89.5954 -6.68768 76 93 80
1.54456 -89.5954 -6.64956 78 95 81
1.54466 -89.5954 -6.61144 79 96 83
1.54476 -89.5954 -6.57332 80 98 84
1.54486 -89.5954 -6.5352 81 99 85
1.54496 -89.5954 -6.49708 82 100 86
1.58336 -91.6409 -5.43673 82 100 84
1.58346 -91.6409 -5.39774 81 99 83
1.55516 -89.9971 -5.26262 81 99 83
1.55526 -89.9971 -5.22433 80 98 82
1.5146 -87.6391 -5.05016 79 97 81
1.5147 -87.6391 -5.01288 78 96 79
1.44537 -83.6223 -4.74754 77 94 78
1.44546 -83.6223 -4.71196 75 92 76
1.44555 -83.6223 -4.67638 74 90 74
1.44564 -83.6223 -4.64081 72 88 72
1.44574 -83.6223 -4.60523 71 86 70
1.44583 -83.6223 -4.56965 69 84 68
1.44592 -83.6223 -4.53407 68 82 66
1.44601 -83.6223 -4.49849 66 80 64
1.4461 -83.6223 -4.46291 64 78 62
1.4462 -83.6223 -4.42734 63 76 60
1.44629 -83.6223 -4.39176 61 74 58
1.44638 -83.6223 -4.35618 59 72 56
1.44647 -83.6223 -4.3206 57 69 54
1.44657 -83.6223 -4.28502 55 67 52
1.36156 -78.7034 -3.99948 54 65 50
1.36165 -78.7034 -3.96599 52 63 48
1.36173 -78.7034 -3.9325 51 62 47
1.36182 -78.7034 -3.89902 50 60 46
1.36191 -78.7034 -3.86553 50 59 45
1.36199 -78.7034 -3.83205 49 59 44
1.44721 -83.6223 -4.03597 49 59 44
1.4473 -83.6223 -4.00039 49 59 44
1.44739 -83.6223 -3.96481 50 59 45
1.44749 -83.6223 -3.92924 50 60 46
1.44758 -83.6223 -3.89366 51 61 46
1.44767 -83.6223 -3.85808 52 62 48
1.44776 -83.6223 -3.8225 54 63 49
1.44785 -83.6223 -3.78692 55 65 50
1.44795 -83.6223 -3.75134 56 66 51
1.44804 -83.6223 -3.71577 57 67 53
1.44813 -83.6223 -3.68019 58 69 54
1.44822 -83.6223 -3.64461 59 70 55
1.44832 -83.6223 -3.60903 60 71 56
1.44841 -83.6223 -3.57345 61 72 57
1.4485 -83.6223 -3.53787 62 73 58
1.44859 -83.6223 -3.50229 63 74 59
1.55216 -89.5954 -3.71434 64 76 60
1.55226 -89.5954 -3.67622 65 77 61
1.58291 -89.9971 5.45879 60 73 62
1.58301 -89.9971 5.49708 60 73 62
1.46554 -83.6125 -10.2267 77 96 85
1.46563 -83.6125 -10.1911 77 96 84
1.46572 -83.6125 -10.1556 77 96 84
1.46581 -83.6125 -10.12 77 95 84
1.46591 -83.6125 -10.0844 77 95 84
1.466 -83.6125 -10.0488 76 95 84
1.46609 -83.6125 -10.0132 76 95 84
1.46618 -83.6125 -9.97767 76 95 84
1.46019 -83.2656 -9.90084 76 95 84
1.46028 -83.2656 -9.86541 77 95 84
1.46037 -83.2656 -9.82997 77 95 84
1.46046 -83.2656 -9.79454 77 95 84
1.43671 -81.9062 -9.59978 77 95 84
1.4368 -81.9062 -9.56493 77 96 84
1.43689 -81.9062 -9.53008 77 96 84
1.43698 -81.9062 -9.49522 78 96 84
1.37532 -78.3868 -9.05387 78 96 85
1.37541 -78.3868 -9.02052 78 97 85
1.3755 -78.3868 -8.98716 79 97 85
1.37558 -78.3868 -8.95381 79 98 85
1.37567 -78.3868 -8.92045 80 98 86
1.37575 -78.3868 -8.8871 80 98 86
1.37584 -78.3868 -8.85374 80 99 86
1.37593 -78.3868 -8.82039 80 99 87
1.37601 -78.3868 -8.78703 81 99 87
1.3761 -78.3868 -8.75368 81 99 87
1.37619 -78.3868 -8.72032 81 99 87
1.37627 -78.3868 -8.68697 81 99 87
1.37636 -78.3868 -8.65361 80 99 86
1.37645 -78.3868 -8.62026 80 99 86
1.37118 -78.0818 -8.55349 80 99 86
1.37126 -78.0818 -8.52027 79 98 85
1.3767 -78.3868 -8.52019 78 97 84
1.37679 -78.3868 -8.48684 77 96 83
1.32015 -75.1573 -8.10521 75 95 82
1.32023 -75.1573 -8.07323 74 93 81
1.29605 -73.7758 -7.89343 73 92 80
1.29613 -73.7758 -7.86204 72 91 79
1.29621 -73.7758 -7.83065 72 90 78
1.29629 -73.7758 -7.79926 71 89 77
1.29637 -73.7758 -7.76786 70 89 77
1.29645 -73.7758 -7.73647 70 88 76
1.29653 -73.7758 -7.70508 69 87 75
1.29662 -73.7758 -7.67368 69 87 75
1.2967 -73.7758 -7.64229 69 87 74
1.29678 -73.7758 -7.6109 68 86 74
1.29686 -73.7758 -7.57951 67 86 73
1.29694 -73.7758 -7.54811 67 85 73
1.29702 -73.7758 -7.51672 66 84 72
1.2971 -73.7758 -7.48533 65 83 71
1.37826 -78.3868 -7.91981 64 82 70
1.37834 -78.3868 -7.88645 63 81 69
1.37843 -78.3868 -7.8531 62 80 68
1.37852 -78.3868 -7.81974 61 79 67
1.3786 -78.3868 -7.78639 60 78 66
1.37869 -78.3868 -7.75303 59 77 65
1.37878 -78.3868 -7.71968 59 77 64
1.37886 -78.3868 -7.68632 58 76 64
1.37895 -78.3868 -7.65297 58 76 63
1.37904 -78.3868 -7.61961 57 75 63
1.47106 -83.6125 -8.09201 56 75 62
1.47116 -83.6125 -8.05643 56 74 61
1.47125 -83.6125 -8.02085 55 73 60
1.47134 -83.6125 -7.98527 53 71 59
1.47143 -83.6125 -7.94969 53 70 58
1.47152 -83.6125 -7.91412 52 69 57
1.47162 -83.6125 -7.87854 51 68 56
1.47171 -83.6125 -7.84296 50 67 55
1.4718 -83.6125 -7.80738 50 67 55
1.47189 -83.6125 -7.7718 50 66 54
1.57713 -89.5849 -8.28881 49 66 54
1.57723 -89.5849 -8.25069 50 66 54
1.57732 -89.5849 -8.21257 50 66 54
1.57742 -89.5849 -8.17445 51 66 54
1.57752 -89.5849 -8.13633 51 67 55
1.57762 -89.5849 -8.09821 52 68 56
1.57772 -89.5849 -8.06009 53 68 56
1.57782 -89.5849 -8.02197 53 69 57
1.58499 -89.9866 -8.01965 54 70 57
1.58509 -89.9866 -7.98136 54 70 58
1.58519 -89.9866 -7.94307 55 71 58
1.58529 -89.9866 -7.90478 55 71 59
1.58539 -89.9866 -7.86649 56 72 59
1.58549 -89.9866 -7.8282 56 72 60
1.57871 -89.5849 -7.67889 57 73 61
1.5788 -89.5849 -7.64077 57 73 61
1.5791 -89.5849 -7.52641 58 74 62
1.5792 -89.5849 -7.48829 58 74 62
1.5793 -89.5849 -7.45017 58 74 62
1.5794 -89.5849 -7.41206 59 75 62
1.57949 -89.5849 -7.37394 59 75 63
1.57959 -89.5849 -7.33582 60 76 63
1.57969 -89.5849 -7.2977 60 76 64
1.57979 -89.5849 -7.25958 61 77 64
1.58068 -89.5849 -6.9165 68 85 72
1.58078 -89.5849 -6.87838 69 86 73
1.58088 -89.5849 -6.84026 71 87 74
1.58098 -89.5849 -6.80214 72 89 76
1.58107 -89.5849 -6.76402 73 90 77
1.58117 -89.5849 -6.7259 75 91 78
1.58836 -89.9866 -6.71777 76 93 79
1.58846 -89.9866 -6.67948 77 94 81
1.58147 -89.5849 -6.61154 79 96 82
1.58157 -89.5849 -6.57342 80 97 83
1.58876 -89.9866 -6.56461 81 98 84
1.58886 -89.9866 -6.52631 82 100 85
1.58502 -89.5849 -5.23923 80 98 81
1.58512 -89.5849 -5.20111 79 97 80
1.51102 -85.3915 -4.92131 78 96 79
1.51111 -85.3915 -4.88498 77 94 78
1.47972 -83.6125 -4.74763 76 93 76
1.47981 -83.6125 -4.71205 75 91 75
1.47991 -83.6125 -4.67647 73 89 73
1.48 -83.6125 -4.64089 72 87 71
1.48009 -83.6125 -4.60532 70 86 69
1.48018 -83.6125 -4.56974 69 84 67
1.48027 -83.6125 -4.53416 67 82 65
1.48037 -83.6125 -4.49858 66 80 63
1.48046 -83.6125 -4.463 64 78 62
1.48055 -83.6125 -4.42742 62 76 60
1.48064 -83.6125 -4.39185 61 74 58
1.48074 -83.6125 -4.35627 59 72 56
1.47468 -83.2656 -4.30276 57 69 54
1.47477 -83.2656 -4.26733 55 67 52
1.38845 -78.3868 -3.98394 54 65 50
1.38853 -78.3868 -3.95058 52 63 48
1.39407 -78.6942 -3.93259 51 62 47
1.39415 -78.6942 -3.8991 50 60 46
1.39424 -78.6942 -3.86562 50 59 45
1.39433 -78.6942 -3.83213 49 59 44
1.48156 -83.6125 -4.03606 49 59 44
1.48166 -83.6125 -4.00048 49 58 44
1.48175 -83.6125 -3.9649 50 59 44
1.48184 -83.6125 -3.92932 50 59 45
1.48193 -83.6125 -3.89375 51 60 46
1.48202 -83.6125 -3.85817 52 61 47
1.48212 -83.6125 -3.82259 53 63 48
1.48221 -83.6125 -3.78701 54 64 49
1.4823 -83.6125 -3.75143 55 65 51
1.48239 -83.6125 -3.71585 56 66 52
1.48249 -83.6125 -3.68028 57 68 53
1.48258 -83.6125 -3.6447 58 69 54
1.48267 -83.6125 -3.60912 59 70 55
1.48276 -83.6125 -3.57354 60 71 56
1.48285 -83.6125 -3.53796 61 72 57
1.48295 -83.6125 -3.50238 62 73 58
1.58897 -89.5849 -3.71443 63 74 59
1.58907 -89.5849 -3.67631 64 75 60
1.61266 -89.5849 5.43432 59 71 60
1.61275 -89.5849 5.47244 59 71 61
1.49989 -83.6028 -10.2268 77 96 85
1.49998 -83.6028 -10.1912 77 96 84
1.50008 -83.6028 -10.1556 77 95 84
1.50017 -83.6028 -10.1201 77 95 84
1.50026 -83.6028 -10.0845 76 95 84
1.50035 -83.6028 -10.0489 76 95 84
1.50044 -83.6028 -10.0133 76 95 84
1.50054 -83.6028 -9.97776 76 95 83
1.47 -81.8966 -9.73928 76 95 83
1.47009 -81.8966 -9.70442 76 95 83
1.47018 -81.8966 -9.66957 77 95 84
1.47027 -81.8966 -9.63472 77 95 84
1.49477 -83.2559 -9.7592 77 95 84
1.49486 -83.2559 -9.72377 77 96 84
1.49495 -83.2559 -9.68834 77 96 84
1.49504 -83.2559 -9.65291 78 96 84
1.40753 -78.3776 -9.05395 78 96 85
1.40762 -78.3776 -9.0206 78 97 85
1.4077 -78.3776 -8.98724 79 97 85
1.40779 -78.3776 -8.95389 79 97 85
1.40788 -78.3776 -8.92053 79 98 86
1.40796 -78.3776 -8.88718 80 98 86
1.40805 -78.3776 -8.85382 80 99 86
1.40813 -78.3776 -8.82047 80 99 86
1.40822 -78.3776 -8.78711 80 99 87
1.40831 -78.3776 -8.75376 80 99 87
1.40839 -78.3776 -8.72041 80 99 87
1.40848 -78.3776 -8.68705 80 99 86
1.40857 -78.3776 -8.6537 80 99 86
1.40865 -78.3776 -8.62034 80 99 86
1.38175 -76.8761 -8.42248 80 99 86
1.38184 -76.8761 -8.38977 79 98 85
1.40891 -78.3776 -8.52028 78 97 84
1.409 -78.3776 -8.48692 76 96 83
1.33109 -74.0393 -7.98566 75 94 82
1.33117 -74.0393 -7.95415 74 93 81
1.32636 -73.7671 -7.89351 73 92 80
1.32644 -73.7671 -7.86212 72 91 79
1.32652 -73.7671 -7.83073 71 90 78
1.3266 -73.7671 -7.79933 71 89 77
1.32668 -73.7671 -7.76794 70 88 76
1.32677 -73.7671 -7.73655 69 88 76
1.32685 -73.7671 -7.70516 69 87 75
1.32693 -73.7671 -7.67376 68 86 74
1.32701 -73.7671 -7.64237 68 86 74
1.32709 -73.7671 -7.61098 68 86 73
1.32717 -73.7671 -7.57958 67 85 73
1.32725 -73.7671 -7.54819 66 85 72
1.32733 -73.7671 -7.5168 65 84 71
1.32742 -73.7671 -7.48541 65 83 71
1.41047 -78.3776 -7.91989 64 82 70
1.41055 -78.3776 -7.88653 63 81 69
1.41064 -78.3776 -7.85318 62 80 68
1.41072 -78.3776 -7.81982 61 79 67
1.41081 -78.3776 -7.78647 60 78 66
1.4109 -78.3776 -7.75311 60 78 65
1.41098 -78.3776 -7.71976 59 77 65
1.41107 -78.3776 -7.68641 59 77 64
1.41116 -78.3776 -7.65305 59 76 64
1.41124 -78.3776 -7.6197 58 76 63
1.50542 -83.6028 -8.0921 57 75 63
1.50551 -83.6028 -8.05652 57 75 62
1.5056 -83.6028 -8.02094 56 74 61
1.50569 -83.6028 -7.98536 55 73 60
1.50579 -83.6028 -7.94978 54 71 59
1.50588 -83.6028 -7.9142 53 70 58
1.50597 -83.6028 -7.87863 52 69 57
1.50606 -83.6028 -7.84305 52 69 56
1.50615 -83.6028 -7.80747 51 68 56
1.50625 -83.6028 -7.77189 51 67 55
1.61393 -89.5744 -8.28891 51 67 55
1.61403 -89.5744 -8.25079 51 67 55
1.61413 -89.5744 -8.21267 51 67 55
1.61423 -89.5744 -8.17455 52 68 55
1.61433 -89.5744 -8.13643 53 68 56
1.61443 -89.5744 -8.09831 53 69 56
1.61453 -89.5744 -8.06019 54 69 57
1.61463 -89.5744 -8.02207 54 70 57
1.65159 -91.6195 -8.16623 55 70 58
1.65169 -91.6195 -8.12724 55 71 58
1.65179 -91.6195 -8.08825 55 71 59
1.65189 -91.6195 -8.04926 56 72 59
1.65199 -91.6195 -8.01027 56 72 60
1.65209 -91.6195 -7.97128 56 72 60
1.61551 -89.5744 -7.67899 57 73 61
1.61561 -89.5744 -7.64087 57 73 61
1.61591 -89.5744 -7.52651 58 74 62
1.61601 -89.5744 -7.48839 58 74 62
1.61611 -89.5744 -7.45027 58 74 62
1.6162 -89.5744 -7.41215 59 75 62
1.6163 -89.5744 -7.37403 59 75 63
1.6164 -89.5744 -7.33591 59 75 63
1.6165 -89.5744 -7.29779 60 76 64
1.6166 -89.5744 -7.25967 61 77 64
1.61749 -89.5744 -6.91659 68 84 72
1.61759 -89.5744 -6.87847 69 86 73
1.61769 -89.5744 -6.84035 70 87 74
1.61778 -89.5744 -6.80223 72 88 75
1.61788 -89.5744 -6.76411 73 90 76
1.61798 -89.5744 -6.72599 74 91 78
1.65502 -91.6195 -6.84056 76 92 79
1.65512 -91.6195 -6.80157 77 94 80
1.61828 -89.5744 -6.61163 78 95 81
1.61838 -89.5744 -6.57351 79 97 83
1.65543 -91.6195 -6.6846 80 98 84
1.65553 -91.6195 -6.64561 82 99 85
1.62183 -89.5744 -5.23932 79 96 80
1.62193 -89.5744 -5.2012 78 96 79
1.52023 -83.9526 -4.83904 77 94 78
1.52032 -83.9526 -4.80331 76 93 77
1.51408 -83.6028 -4.74772 75 92 75
1.51417 -83.6028 -4.71214 74 90 73
1.51426 -83.6028 -4.67656 72 88 72
1.51435 -83.6028 -4.64098 71 86 70
1.51444 -83.6028 -4.6054 69 85 68
1.51454 -83.6028 -4.56983 68 83 66
1.51463 -83.6028 -4.53425 67 81 64
1.51472 -83.6028 -4.49867 65 79 63
1.51481 -83.6028 -4.46309 64 77 61
1.51491 -83.6028 -4.42751 62 76 59
1.515 -83.6028 -4.39193 60 74 57
1.51509 -83.6028 -4.35636 59 71 55
1.48426 -81.8966 -4.2326 57 69 53
1.48435 -81.8966 -4.19775 55 67 51
1.42066 -78.3776 -3.98402 54 65 50
1.42074 -78.3776 -3.95066 52 63 48
1.44913 -79.9389 -3.99534 51 62 47
1.44922 -79.9389 -3.96132 50 60 46
1.44931 -79.9389 -3.9273 50 60 45
1.4494 -79.9389 -3.89328 49 59 44
1.51592 -83.6028 -4.03615 49 58 44
1.51601 -83.6028 -4.00057 49 58 44
1.5161 -83.6028 -3.96499 49 59 44
1.5162 -83.6028 -3.92941 50 59 45
1.51629 -83.6028 -3.89383 51 60 46
1.51638 -83.6028 -3.85826 52 61 46
1.51647 -83.6028 -3.82268 53 62 48
1.51656 -83.6028 -3.7871 54 63 49
1.51666 -83.6028 -3.75152 55 64 50
1.51675 -83.6028 -3.71594 56 66 51
1.51684 -83.6028 -3.68036 56 67 52
1.51693 -83.6028 -3.64479 57 68 53
1.51702 -83.6028 -3.60921 58 69 54
1.51712 -83.6028 -3.57363 59 70 55
1.51721 -83.6028 -3.53805 60 71 55
1.5173 -83.6028 -3.50247 61 72 56
1.62578 -89.5744 -3.71453 62 73 57
1.62588 -89.5744 -3.67641 62 74 58
1.64946 -89.5744 5.43423 58 70 59
1.64956 -89.5744 5.47235 57 70 59
1.53425 -83.593 -10.2269 77 96 84
1.53434 -83.593 -10.1913 77 96 84
1.53443 -83.593 -10.1557 77 95 84
1.53452 -83.593 -10.1202 76 95 84
1.53461 -83.593 -10.0846 76 95 84
1.53471 -83.593 -10.049 76 95 84
1.5348 -83.593 -10.0134 76 95 83
1.53489 -83.593 -9.97785 76 95 83
1.46771 -79.9295 -9.50655 76 95 83
1.4678 -79.9295 -9.47253 76 95 83
1.46789 -79.9295 -9.43851 76 95 83
1.46798 -79.9295 -9.40449 77 95 84
1.53535 -83.593 -9.79995 77 95 84
1.53544 -83.593 -9.76437 77 95 84
1.53554 -83.593 -9.7288 77 96 84
1.53563 -83.593 -9.69322 78 96 84
1.43974 -78.3684 -9.05404 78 96 85
1.43982 -78.3684 -9.02068 78 97 85
1.43991 -78.3684 -8.98733 79 97 85
1.44 -78.3684 -8.95397 79 97 85
1.44008 -78.3684 -8.92062 79 98 86
1.44017 -78.3684 -8.88726 80 98 86
1.44026 -78.3684 -8.85391 80 99 86
1.44034 -78.3684 -8.82055 80 99 86
1.44043 -78.3684 -8.7872 80 99 86
1.44051 -78.3684 -8.75384 80 99 87
1.4406 -78.3684 -8.72049 80 99 86
1.44069 -78.3684 -8.68713 80 99 86
1.44077 -78.3684 -8.65378 80 99 86
1.44086 -78.3684 -8.62042 80 99 86
1.38158 -75.1397 -8.23329 80 99 86
1.38166 -75.1397 -8.20131 79 98 85
1.43551 -78.0635 -8.48721 78 97 84
