ply
format ascii 1.0
comment author : Loiseau & Broux
comment object : 3d point Cloud
element vertex 1372
property float x
property float y
property float z
property uchar red
property uchar green
property uchar blue
end_header
2.45464 -21.8113 1.12458 25 32 21
2.45466 -21.8113 1.13411 25 33 21
2.45468 -21.8113 1.14364 25 33 21
2.45471 -21.8113 1.15317 25 33 21
2.45473 -21.8113 1.1627 26 33 21
2.45476 -21.8113 1.17223 26 33 21
2.45753 -21.8357 1.18308 26 34 22
2.45755 -21.8357 1.19262 27 34 22
2.45758 -21.8357 1.20216 27 34 22
2.4576 -21.8357 1.2117 27 34 22
2.45763 -21.8357 1.22124 28 35 22
2.45765 -21.8357 1.23078 28 35 22
2.48544 -22.0824 1.25434 29 35 22
2.48547 -22.0824 1.26399 29 35 22
2.48549 -22.0824 1.27363 29 35 22
2.48552 -22.0824 1.28328 29 35 23
2.48554 -22.0824 1.29293 29 36 23
2.48557 -22.0824 1.30258 29 36 23
2.48559 -22.0824 1.31223 29 36 23
2.48562 -22.0824 1.32188 29 36 23
2.48564 -22.0824 1.33152 29 36 23
2.48567 -22.0824 1.34117 29 36 23
2.49982 -22.2079 1.3585 29 36 22
2.49984 -22.2079 1.3682 29 36 22
2.49987 -22.2079 1.3779 28 36 22
2.49989 -22.2079 1.38761 28 36 22
2.49992 -22.2079 1.39731 28 36 22
2.49994 -22.2079 1.40701 28 35 22
2.49997 -22.2079 1.41672 27 35 22
2.49999 -22.2079 1.42642 27 35 22
2.50002 -22.2079 1.43612 27 35 22
2.50004 -22.2079 1.44583 26 35 22
2.50007 -22.2079 1.45553 26 35 21
2.50009 -22.2079 1.46523 26 35 21
2.50012 -22.2079 1.47494 25 35 21
2.50014 -22.2079 1.48464 25 35 21
2.50017 -22.2079 1.49434 25 35 21
2.50019 -22.2079 1.50404 25 35 21
2.50022 -22.2079 1.51375 25 35 21
2.50025 -22.2079 1.52345 24 35 21
2.50027 -22.2079 1.53315 24 35 21
2.5003 -22.2079 1.54286 25 36 21
2.50032 -22.2079 1.55256 25 36 22
2.50035 -22.2079 1.56226 25 36 22
2.50037 -22.2079 1.57197 25 36 22
2.5004 -22.2079 1.58167 25 36 22
2.50042 -22.2079 1.59137 25 37 22
2.50045 -22.2079 1.60108 26 37 23
2.50047 -22.2079 1.61078 26 37 23
2.5005 -22.2079 1.62048 26 37 23
2.50052 -22.2079 1.63019 26 37 24
2.50055 -22.2079 1.63989 26 37 24
2.50057 -22.2079 1.64959 27 37 24
2.5006 -22.2079 1.6593 27 38 24
2.50062 -22.2079 1.669 27 38 25
2.50065 -22.2079 1.6787 27 38 25
2.50067 -22.2079 1.68841 28 38 25
2.5007 -22.2079 1.69811 28 38 26
2.50072 -22.2079 1.70781 28 38 26
2.50075 -22.2079 1.71752 29 39 26
2.50077 -22.2079 1.72722 29 39 27
2.5008 -22.2079 1.73692 29 39 27
2.50407 -22.2332 1.90404 33 41 31
2.5041 -22.2332 1.91376 33 41 31
2.50412 -22.2332 1.92347 33 41 31
2.50415 -22.2332 1.93318 33 41 31
2.50417 -22.2332 1.9429 33 40 31
2.5042 -22.2332 1.95261 33 40 31
2.50707 -22.2585 1.96456 33 40 31
2.5071 -22.2585 1.97429 33 40 31
3.91395 -34.7698 -3.67683 35 46 34
3.91399 -34.7698 -3.66164 35 46 34
3.91403 -34.7698 -3.64645 35 45 34
3.91407 -34.7698 -3.63125 35 45 33
2.5167 -22.3321 -1.26861 24 34 22
2.51673 -22.3321 -1.25885 24 34 22
2.50245 -22.2052 -1.24199 24 34 22
2.50248 -22.2052 -1.23229 24 34 22
2.50251 -22.2052 -1.22259 24 34 21
2.50253 -22.2052 -1.21288 23 34 21
2.50256 -22.2052 -1.20318 23 34 21
2.50258 -22.2052 -1.19348 23 33 21
2.50261 -22.2052 -1.18377 23 33 21
2.50263 -22.2052 -1.17407 23 33 21
2.50266 -22.2052 -1.16437 23 33 21
2.50268 -22.2052 -1.15466 23 33 21
2.50271 -22.2052 -1.14496 23 33 21
2.50273 -22.2052 -1.13526 23 33 21
2.50276 -22.2052 -1.12555 23 33 21
2.50278 -22.2052 -1.11585 23 33 21
2.50281 -22.2052 -1.10615 23 33 21
2.50283 -22.2052 -1.09644 23 33 21
2.51716 -22.3321 -1.09295 23 33 21
2.51718 -22.3321 -1.08319 23 33 21
2.51721 -22.3321 -1.07343 24 33 21
2.51723 -22.3321 -1.06367 24 33 21
2.51726 -22.3321 -1.05392 24 33 21
2.51729 -22.3321 -1.04416 24 34 21
2.51731 -22.3321 -1.0344 25 34 21
2.51734 -22.3321 -1.02464 25 34 21
2.51736 -22.3321 -1.01488 25 34 21
2.51739 -22.3321 -1.00512 26 34 22
2.51741 -22.3321 -0.995364 26 34 22
2.51744 -22.3321 -0.985605 26 34 22
2.51746 -22.3321 -0.975846 26 34 22
2.51749 -22.3321 -0.966088 26 34 22
2.50037 -22.18 -0.949816 26 34 22
2.50039 -22.18 -0.940124 27 34 22
2.50042 -22.18 -0.930431 27 34 22
2.50044 -22.18 -0.920739 27 34 22
2.4724 -21.9311 -0.900822 27 34 22
2.47243 -21.9311 -0.891239 27 34 22
2.50052 -22.18 -0.891663 27 34 22
2.50054 -22.18 -0.88197 27 34 22
2.50341 -22.2052 -0.873269 26 34 22
2.50343 -22.2052 -0.863566 26 34 22
2.50346 -22.2052 -0.853863 26 34 21
2.50348 -22.2052 -0.84416 26 33 21
2.50351 -22.2052 -0.834457 26 33 21
2.50354 -22.2052 -0.824753 25 33 21
2.51787 -22.3321 -0.819707 25 33 21
2.51789 -22.3321 -0.809949 25 33 21
2.51792 -22.3321 -0.80019 25 33 21
2.51794 -22.3321 -0.790431 24 33 21
2.51807 -22.3321 -0.741638 23 32 20
2.51809 -22.3321 -0.731879 23 32 20
2.50381 -22.2052 -0.718018 23 32 20
2.50384 -22.2052 -0.708315 23 31 20
2.50386 -22.2052 -0.698611 22 31 19
2.50389 -22.2052 -0.688908 22 31 19
2.50391 -22.2052 -0.679205 22 31 19
2.50394 -22.2052 -0.669502 22 31 19
2.47305 -21.9311 -0.651653 22 31 19
2.47307 -21.9311 -0.642069 22 31 19
2.4593 -21.8087 -0.628956 22 31 19
2.45932 -21.8087 -0.619426 22 31 19
2.45935 -21.8087 -0.609897 23 31 19
2.45937 -21.8087 -0.600367 23 32 19
2.4732 -21.9311 -0.594152 23 32 20
2.47322 -21.9311 -0.584569 23 32 20
2.47325 -21.9311 -0.574985 23 32 20
2.47327 -21.9311 -0.565402 24 32 20
2.4733 -21.9311 -0.555818 24 32 20
2.47332 -21.9311 -0.546235 24 33 20
2.47335 -21.9311 -0.536652 25 33 21
2.47337 -21.9311 -0.527068 25 33 21
2.45959 -21.8087 -0.514597 26 33 21
2.45962 -21.8087 -0.505067 26 34 21
2.45964 -21.8087 -0.495537 27 34 21
2.45967 -21.8087 -0.486007 27 34 22
2.45969 -21.8087 -0.476477 28 34 22
2.45972 -21.8087 -0.466947 28 34 22
2.47355 -21.9311 -0.459984 28 35 22
2.47357 -21.9311 -0.450401 29 35 22
2.47359 -21.9311 -0.440817 29 35 22
2.47362 -21.9311 -0.431234 29 35 22
2.50172 -22.18 -0.426436 29 35 22
2.50175 -22.18 -0.416744 29 35 22
2.50177 -22.18 -0.407052 29 35 22
2.5018 -22.18 -0.39736 29 35 22
2.50182 -22.18 -0.387668 29 34 22
2.50185 -22.18 -0.377975 29 34 22
2.47379 -21.9311 -0.36415 29 34 22
2.47382 -21.9311 -0.354566 28 34 22
2.50192 -22.18 -0.348899 28 34 22
2.50195 -22.18 -0.339207 28 33 22
2.50197 -22.18 -0.329514 28 33 21
2.502 -22.18 -0.319822 27 33 21
2.50487 -22.2052 -0.310482 27 33 21
2.50489 -22.2052 -0.300779 27 32 21
2.50492 -22.2052 -0.291076 26 32 21
2.50494 -22.2052 -0.281373 26 32 21
2.50497 -22.2052 -0.271669 26 32 21
2.50499 -22.2052 -0.261966 25 31 20
2.50502 -22.2052 -0.252263 25 31 20
2.50504 -22.2052 -0.24256 25 31 20
2.50507 -22.2052 -0.232857 24 31 20
2.50509 -22.2052 -0.223153 24 31 20
2.50512 -22.2052 -0.21345 24 31 20
2.50514 -22.2052 -0.203747 24 31 20
2.47424 -21.9311 -0.191648 24 30 20
2.47426 -21.9311 -0.182065 24 30 20
2.47429 -21.9311 -0.172481 24 31 20
2.47431 -21.9311 -0.162898 24 31 20
2.47434 -21.9311 -0.153314 24 31 20
2.47436 -21.9311 -0.143731 24 31 20
2.47439 -21.9311 -0.134147 24 31 20
2.47441 -21.9311 -0.124564 25 31 20
2.46063 -21.8087 -0.114339 25 32 20
2.46065 -21.8087 -0.104809 25 32 21
2.46068 -21.8087 -0.095279 26 32 21
2.4607 -21.8087 -0.0857491 26 32 21
2.46073 -21.8087 -0.0762191 26 32 21
2.46075 -21.8087 -0.0666892 26 32 21
2.47459 -21.9311 -0.05748 26 33 21
2.47461 -21.9311 -0.0478966 27 33 21
2.47464 -21.9311 -0.0383131 27 33 21
2.47466 -21.9311 -0.0287297 27 33 21
2.47469 -21.9311 -0.0191463 27 33 21
2.47471 -21.9311 -0.00956282 27 33 21
2.47474 -21.9311 2.06099e-05 27 33 21
2.47476 -21.9311 0.00960404 27 33 21
2.47479 -21.9311 0.0191875 27 32 21
2.47481 -21.9311 0.0287709 27 32 21
2.50293 -22.18 0.0387897 27 32 21
2.50295 -22.18 0.0484819 27 32 21
2.50298 -22.18 0.0581741 27 32 21
2.503 -22.18 0.0678663 27 32 21
2.50587 -22.2052 0.0776467 27 32 21
2.5059 -22.2052 0.0873499 27 32 21
2.50592 -22.2052 0.0970531 26 32 21
2.50595 -22.2052 0.106756 26 32 21
2.50597 -22.2052 0.11646 26 32 21
2.506 -22.2052 0.126163 26 33 21
2.50602 -22.2052 0.135866 26 33 21
2.50605 -22.2052 0.145569 26 33 21
2.50607 -22.2052 0.155272 26 33 21
2.5061 -22.2052 0.164976 26 33 21
2.50612 -22.2052 0.174679 26 33 21
2.50615 -22.2052 0.184382 25 33 21
2.50617 -22.2052 0.194085 25 33 21
2.5062 -22.2052 0.203789 25 33 21
2.50622 -22.2052 0.213492 25 33 21
2.50625 -22.2052 0.223195 25 33 21
2.50343 -22.18 0.232634 25 33 21
2.50345 -22.18 0.242326 24 32 21
2.50348 -22.18 0.252018 24 32 21
2.5035 -22.18 0.261711 24 32 21
2.47543 -21.9311 0.268357 24 32 21
2.47546 -21.9311 0.27794 24 32 21
2.47548 -21.9311 0.287524 24 32 21
2.47551 -21.9311 0.297107 24 32 21
2.47553 -21.9311 0.30669 24 32 21
2.47555 -21.9311 0.316274 24 32 21
2.50368 -22.18 0.329556 24 32 21
2.5037 -22.18 0.339248 24 32 21
2.50373 -22.18 0.34894 24 32 21
2.50375 -22.18 0.358633 24 32 21
2.50378 -22.18 0.368325 25 32 21
2.5038 -22.18 0.378017 25 32 21
2.47573 -21.9311 0.383358 25 32 21
2.47575 -21.9311 0.392941 25 32 21
2.47578 -21.9311 0.402525 25 33 21
2.4758 -21.9311 0.412108 25 33 21
2.47583 -21.9311 0.421692 26 33 21
2.47585 -21.9311 0.431275 26 33 21
2.47588 -21.9311 0.440859 26 33 21
2.4759 -21.9311 0.450442 26 33 21
2.47593 -21.9311 0.460025 26 33 21
2.47595 -21.9311 0.469609 26 33 21
2.47598 -21.9311 0.479192 26 33 21
2.476 -21.9311 0.488776 27 33 21
2.47603 -21.9311 0.498359 27 33 21
2.47605 -21.9311 0.507943 27 33 21
2.46226 -21.8087 0.514638 27 33 21
2.46228 -21.8087 0.524168 28 33 21
2.46231 -21.8087 0.533698 28 33 21
2.46233 -21.8087 0.543228 28 33 22
2.46236 -21.8087 0.552758 29 34 22
2.46238 -21.8087 0.562288 29 34 22
2.46241 -21.8087 0.571818 30 34 22
2.46243 -21.8087 0.581348 31 35 22
2.46246 -21.8087 0.590878 31 35 23
2.46248 -21.8087 0.600408 32 36 23
2.46251 -21.8087 0.609938 33 36 24
2.46253 -21.8087 0.619467 34 37 24
2.46255 -21.8087 0.628997 34 37 24
2.46258 -21.8087 0.638527 35 38 25
2.4626 -21.8087 0.648057 35 38 25
2.46263 -21.8087 0.657587 36 39 25
2.46265 -21.8087 0.667117 36 39 26
2.46268 -21.8087 0.676647 36 40 26
2.4627 -21.8087 0.686177 37 40 26
2.46273 -21.8087 0.695707 37 40 26
2.46275 -21.8087 0.705237 36 40 26
2.46278 -21.8087 0.714767 36 40 26
2.4628 -21.8087 0.724297 36 40 26
2.46283 -21.8087 0.733827 35 39 26
2.47667 -21.9311 0.747528 35 39 25
2.4767 -21.9311 0.757112 34 39 25
2.47672 -21.9311 0.766695 34 38 25
2.47675 -21.9311 0.776279 33 38 24
2.47677 -21.9311 0.785862 32 37 24
2.4768 -21.9311 0.795446 31 37 24
2.47682 -21.9311 0.805029 30 36 23
2.47685 -21.9311 0.814612 30 35 23
2.47687 -21.9311 0.824196 29 35 22
2.47689 -21.9311 0.833779 28 34 22
2.4631 -21.8087 0.838656 27 34 22
2.46312 -21.8087 0.848186 26 33 21
2.46315 -21.8087 0.857716 26 32 21
2.46317 -21.8087 0.867246 25 32 20
2.4632 -21.8087 0.876776 24 31 20
2.46322 -21.8087 0.886306 24 31 20
2.46325 -21.8087 0.895836 24 31 20
2.46327 -21.8087 0.905366 23 30 19
2.46329 -21.8087 0.914896 23 30 19
2.46332 -21.8087 0.924426 23 30 19
2.46334 -21.8087 0.933956 23 30 19
2.46337 -21.8087 0.943486 22 30 19
2.46339 -21.8087 0.953016 22 30 19
2.46342 -21.8087 0.962546 22 30 19
2.46344 -21.8087 0.972076 22 30 19
2.46347 -21.8087 0.981606 22 30 19
2.46349 -21.8087 0.991136 22 30 19
2.46352 -21.8087 1.00067 22 30 19
2.46354 -21.8087 1.0102 22 30 19
2.46357 -21.8087 1.01973 22 30 19
2.46359 -21.8087 1.02926 22 30 19
2.46362 -21.8087 1.03879 22 30 19
2.46364 -21.8087 1.04832 23 30 19
2.46366 -21.8087 1.05785 23 31 20
2.46369 -21.8087 1.06738 23 31 20
2.46371 -21.8087 1.07691 23 31 20
2.46374 -21.8087 1.08644 23 31 20
2.46376 -21.8087 1.09597 24 32 20
2.46379 -21.8087 1.1055 24 32 20
2.46381 -21.8087 1.11503 24 32 21
2.46384 -21.8087 1.12456 24 32 21
2.46386 -21.8087 1.13408 24 33 21
2.46389 -21.8087 1.14361 25 33 21
2.46391 -21.8087 1.15314 25 33 21
2.46394 -21.8087 1.16267 25 33 21
2.46396 -21.8087 1.1722 26 33 21
2.46399 -21.8087 1.18173 26 33 21
2.46401 -21.8087 1.19126 26 34 22
2.46404 -21.8087 1.20079 27 34 22
2.46406 -21.8087 1.21032 27 34 22
2.46408 -21.8087 1.21985 27 34 22
2.46411 -21.8087 1.22938 28 35 22
2.47796 -21.9311 1.24587 28 35 22
2.47799 -21.9311 1.25545 28 35 22
2.47801 -21.9311 1.26503 28 35 22
2.47804 -21.9311 1.27462 29 35 22
2.47806 -21.9311 1.2842 29 35 22
2.47809 -21.9311 1.29378 29 35 22
2.47811 -21.9311 1.30337 29 35 22
2.47814 -21.9311 1.31295 29 35 22
2.47816 -21.9311 1.32253 29 35 22
2.47818 -21.9311 1.33212 29 35 22
2.50634 -22.18 1.35693 29 35 22
2.50636 -22.18 1.36662 28 35 22
2.50639 -22.18 1.37631 28 35 22
2.50641 -22.18 1.38601 28 35 22
2.50644 -22.18 1.3957 28 35 22
2.50646 -22.18 1.40539 27 35 22
2.50649 -22.18 1.41508 27 35 22
2.50651 -22.18 1.42478 27 35 22
2.50654 -22.18 1.43447 27 35 22
2.50657 -22.18 1.44416 26 35 22
2.50659 -22.18 1.45385 26 35 22
2.50662 -22.18 1.46354 26 35 21
2.50664 -22.18 1.47324 25 35 21
2.50667 -22.18 1.48293 25 35 21
2.50954 -22.2052 1.49432 25 35 21
2.50956 -22.2052 1.50402 25 35 21
2.50959 -22.2052 1.51372 25 35 21
2.50961 -22.2052 1.52343 25 35 21
2.50964 -22.2052 1.53313 25 36 21
2.50966 -22.2052 1.54283 25 36 22
2.50969 -22.2052 1.55254 25 36 22
2.50971 -22.2052 1.56224 25 36 22
2.50974 -22.2052 1.57194 25 36 22
2.50977 -22.2052 1.58165 25 37 22
2.50979 -22.2052 1.59135 26 37 23
2.50982 -22.2052 1.60105 26 37 23
2.50984 -22.2052 1.61076 26 37 23
2.50987 -22.2052 1.62046 26 37 24
2.50989 -22.2052 1.63016 27 37 24
2.50992 -22.2052 1.63987 27 38 24
2.50709 -22.18 1.6477 27 38 25
2.50712 -22.18 1.65739 27 38 25
2.50714 -22.18 1.66708 28 38 25
2.50717 -22.18 1.67677 28 38 25
2.50719 -22.18 1.68647 28 38 26
2.50722 -22.18 1.69616 28 39 26
2.51009 -22.2052 1.70779 29 39 26
2.51012 -22.2052 1.71749 29 39 27
2.51014 -22.2052 1.72719 29 39 27
2.51017 -22.2052 1.7369 30 39 27
2.52454 -22.3321 1.75658 30 40 28
2.52456 -22.3321 1.76634 30 40 28
2.52459 -22.3321 1.7761 31 40 28
2.52461 -22.3321 1.78586 31 40 29
2.51059 -22.2052 1.90185 33 41 31
2.51062 -22.2052 1.91156 33 41 31
2.51064 -22.2052 1.92126 33 41 31
2.51067 -22.2052 1.93096 33 41 31
2.51069 -22.2052 1.94067 33 40 31
2.51072 -22.2052 1.95037 33 40 31
2.51074 -22.2052 1.96007 33 40 31
2.51077 -22.2052 1.96978 32 40 31
2.51463 -22.2278 -1.26286 24 34 22
2.51466 -22.2278 -1.25314 24 34 22
2.51182 -22.2026 -1.24202 24 34 22
2.51185 -22.2026 -1.23231 24 34 22
2.51187 -22.2026 -1.22261 24 34 21
2.5119 -22.2026 -1.21291 24 34 21
2.51192 -22.2026 -1.2032 24 34 21
2.51195 -22.2026 -1.1935 24 34 21
2.51197 -22.2026 -1.1838 24 34 21
2.512 -22.2026 -1.17409 24 34 21
2.51203 -22.2026 -1.16439 24 34 21
2.51205 -22.2026 -1.15469 24 34 21
2.51208 -22.2026 -1.14498 24 34 21
2.5121 -22.2026 -1.13528 24 34 21
2.51213 -22.2026 -1.12558 24 34 21
2.51215 -22.2026 -1.11587 24 34 21
2.51218 -22.2026 -1.10617 24 34 21
2.5122 -22.2026 -1.09647 24 34 21
2.51508 -22.2278 -1.088 24 34 21
2.51511 -22.2278 -1.07829 24 34 21
2.51513 -22.2278 -1.06857 25 34 21
2.51516 -22.2278 -1.05886 25 34 22
2.51518 -22.2278 -1.04914 25 34 22
2.51521 -22.2278 -1.03943 26 35 22
2.51524 -22.2278 -1.02972 26 35 22
2.51526 -22.2278 -1.02 26 35 22
2.51529 -22.2278 -1.01029 26 35 22
2.51531 -22.2278 -1.00057 27 35 22
2.51534 -22.2278 -0.990858 27 35 22
2.51536 -22.2278 -0.981144 27 35 22
2.51539 -22.2278 -0.97143 27 35 22
2.51541 -22.2278 -0.961715 27 35 22
2.49838 -22.0771 -0.945547 28 35 22
2.49841 -22.0771 -0.935899 28 35 22
2.49843 -22.0771 -0.92625 28 35 22
2.49846 -22.0771 -0.916602 28 35 22
2.47057 -21.8304 -0.89682 28 35 22
2.47059 -21.8304 -0.887279 28 35 22
2.49853 -22.0771 -0.887656 27 35 22
2.49856 -22.0771 -0.878008 27 35 22
2.51278 -22.2026 -0.873294 27 35 22
2.5128 -22.2026 -0.86359 27 34 22
2.51283 -22.2026 -0.853887 27 34 22
2.51285 -22.2026 -0.844184 27 34 22
2.51288 -22.2026 -0.834481 26 34 22
2.5129 -22.2026 -0.824777 26 34 21
2.51579 -22.2278 -0.816001 26 33 21
2.51581 -22.2278 -0.806287 26 33 21
2.51584 -22.2278 -0.796573 25 33 21
2.51586 -22.2278 -0.786859 25 33 21
2.51599 -22.2278 -0.738287 24 32 20
2.51601 -22.2278 -0.728573 23 32 20
2.51318 -22.2026 -0.718042 23 32 20
2.51321 -22.2026 -0.708339 23 32 20
2.51323 -22.2026 -0.698635 23 32 20
2.51326 -22.2026 -0.688932 23 31 19
2.51328 -22.2026 -0.679229 23 31 19
2.51331 -22.2026 -0.669526 22 31 19
2.47121 -21.8304 -0.648764 22 31 19
2.47123 -21.8304 -0.639223 23 31 19
2.4685 -21.8061 -0.62898 23 31 19
2.46852 -21.8061 -0.61945 23 31 19
2.46855 -21.8061 -0.60992 23 32 19
2.46857 -21.8061 -0.60039 23 32 20
2.47136 -21.8304 -0.59152 23 32 20
2.47138 -21.8304 -0.58198 24 32 20
2.47141 -21.8304 -0.572439 24 32 20
2.47143 -21.8304 -0.562899 24 32 20
2.47146 -21.8304 -0.553358 25 33 20
2.47148 -21.8304 -0.543817 25 33 20
2.47151 -21.8304 -0.534277 25 33 21
2.47153 -21.8304 -0.524736 26 33 21
2.4688 -21.8061 -0.514621 26 34 21
2.46882 -21.8061 -0.505091 27 34 21
2.46885 -21.8061 -0.495561 27 34 22
2.46887 -21.8061 -0.486031 28 34 22
2.46889 -21.8061 -0.476501 28 35 22
2.46892 -21.8061 -0.466971 29 35 22
2.4717 -21.8304 -0.457952 29 35 22
2.47173 -21.8304 -0.448411 29 35 22
2.47175 -21.8304 -0.438871 30 35 22
2.47178 -21.8304 -0.42933 30 35 23
2.49973 -22.0771 -0.424533 30 35 23
2.49976 -22.0771 -0.414885 30 35 23
2.49978 -22.0771 -0.405236 30 35 22
2.49981 -22.0771 -0.395588 30 35 22
2.49983 -22.0771 -0.385939 30 35 22
2.49986 -22.0771 -0.376291 29 34 22
2.47195 -21.8304 -0.362546 29 34 22
2.47197 -21.8304 -0.353005 29 34 22
2.49993 -22.0771 -0.347346 29 34 22
2.49996 -22.0771 -0.337697 28 33 22
2.49998 -22.0771 -0.328049 28 33 21
2.50001 -22.0771 -0.318401 28 33 21
2.51424 -22.2026 -0.310506 27 32 21
2.51426 -22.2026 -0.300803 27 32 21
2.51429 -22.2026 -0.2911 27 32 21
2.51431 -22.2026 -0.281397 26 32 21
2.51434 -22.2026 -0.271694 26 31 21
2.51436 -22.2026 -0.26199 26 31 20
2.51439 -22.2026 -0.252287 25 31 20
2.51441 -22.2026 -0.242584 25 31 20
2.51444 -22.2026 -0.232881 25 31 20
2.51446 -22.2026 -0.223177 24 30 20
2.51449 -22.2026 -0.213474 24 30 20
2.51451 -22.2026 -0.203771 24 30 20
2.47239 -21.8304 -0.190815 24 30 20
2.47242 -21.8304 -0.181275 24 30 20
2.47244 -21.8304 -0.171734 24 30 20
2.47247 -21.8304 -0.162193 24 30 20
2.47249 -21.8304 -0.152653 24 31 20
2.47252 -21.8304 -0.143112 24 31 20
2.47254 -21.8304 -0.133572 25 31 20
2.47257 -21.8304 -0.124031 25 31 20
2.46983 -21.8061 -0.114363 25 31 20
2.46986 -21.8061 -0.104833 25 32 21
2.46988 -21.8061 -0.0953027 26 32 21
2.46991 -21.8061 -0.0857728 26 32 21
2.46993 -21.8061 -0.0762428 26 32 21
2.46996 -21.8061 -0.0667129 26 32 21
2.47274 -21.8304 -0.0572468 26 32 21
2.47276 -21.8304 -0.0477062 27 32 21
2.47279 -21.8304 -0.0381656 27 32 21
2.47281 -21.8304 -0.028625 27 32 21
2.47284 -21.8304 -0.0190844 27 32 21
2.47286 -21.8304 -0.0095438 27 32 21
2.47289 -21.8304 -3.19907e-06 27 32 21
2.47291 -21.8304 0.0095374 27 32 21
2.47294 -21.8304 0.019078 27 32 21
2.47296 -21.8304 0.0286186 27 32 21
2.50093 -22.0771 0.0385904 27 32 21
2.50096 -22.0771 0.0482388 27 32 21
2.50098 -22.0771 0.0578872 26 32 21
2.50101 -22.0771 0.0675356 26 32 21
2.51524 -22.2026 0.0776225 26 32 21
2.51527 -22.2026 0.0873258 26 32 21
2.51529 -22.2026 0.097029 26 32 21
2.51532 -22.2026 0.106732 26 32 21
2.51534 -22.2026 0.116435 26 32 21
2.51537 -22.2026 0.126139 26 32 21
2.51539 -22.2026 0.135842 26 32 21
2.51542 -22.2026 0.145545 25 32 21
2.51544 -22.2026 0.155248 25 32 21
2.51547 -22.2026 0.164952 25 32 21
2.51549 -22.2026 0.174655 25 32 21
2.51552 -22.2026 0.184358 25 32 21
2.51554 -22.2026 0.194061 25 32 21
2.51557 -22.2026 0.203764 25 32 21
2.51559 -22.2026 0.213468 25 32 21
2.51562 -22.2026 0.223171 25 32 21
2.50143 -22.0771 0.231558 24 32 21
2.50146 -22.0771 0.241207 24 32 21
2.50148 -22.0771 0.250855 24 32 21
2.5015 -22.0771 0.260504 24 32 21
2.47358 -21.8304 0.267134 24 32 21
2.4736 -21.8304 0.276674 24 32 21
2.47363 -21.8304 0.286215 24 32 21
2.47365 -21.8304 0.295755 24 32 21
2.47368 -21.8304 0.305296 24 32 21
2.4737 -21.8304 0.314837 24 32 21
2.50168 -22.0771 0.328043 24 32 21
2.5017 -22.0771 0.337691 24 32 21
2.50173 -22.0771 0.347339 24 32 21
2.50175 -22.0771 0.356988 24 32 21
2.50178 -22.0771 0.366636 25 32 21
2.5018 -22.0771 0.376285 25 32 21
2.47388 -21.8304 0.381621 25 32 21
2.4739 -21.8304 0.391161 25 32 21
2.47393 -21.8304 0.400702 25 33 21
2.47395 -21.8304 0.410243 25 33 21
2.47398 -21.8304 0.419783 26 33 21
2.474 -21.8304 0.429324 26 33 21
2.47402 -21.8304 0.438864 26 33 21
2.47405 -21.8304 0.448405 26 33 21
2.47407 -21.8304 0.457946 26 33 21
2.4741 -21.8304 0.467486 26 33 21
2.47412 -21.8304 0.477027 26 33 21
2.47415 -21.8304 0.486567 27 33 21
2.47417 -21.8304 0.496108 27 33 21
2.4742 -21.8304 0.505649 27 33 21
2.47146 -21.8061 0.514614 27 33 21
2.47149 -21.8061 0.524144 27 33 21
2.47151 -21.8061 0.533674 28 33 21
2.47153 -21.8061 0.543204 28 33 21
2.47156 -21.8061 0.552734 28 33 22
2.47158 -21.8061 0.562264 29 34 22
2.47161 -21.8061 0.571794 29 34 22
2.47163 -21.8061 0.581324 30 34 22
2.47166 -21.8061 0.590854 31 35 22
2.47168 -21.8061 0.600384 31 35 23
2.47171 -21.8061 0.609914 32 36 23
2.47173 -21.8061 0.619444 33 36 24
2.47176 -21.8061 0.628974 34 37 24
2.47178 -21.8061 0.638504 34 37 24
2.47181 -21.8061 0.648034 35 38 25
2.47183 -21.8061 0.657564 35 38 25
2.47186 -21.8061 0.667094 36 39 25
2.47188 -21.8061 0.676624 36 39 25
2.4719 -21.8061 0.686153 36 39 25
2.47193 -21.8061 0.695683 36 39 25
2.47195 -21.8061 0.705213 36 39 25
2.47198 -21.8061 0.714743 36 39 25
2.472 -21.8061 0.724273 35 39 25
2.47203 -21.8061 0.733803 35 39 25
2.47481 -21.8304 0.744164 34 39 25
2.47484 -21.8304 0.753704 34 38 25
2.47486 -21.8304 0.763245 33 38 25
2.47489 -21.8304 0.772786 33 38 24
2.47491 -21.8304 0.782326 32 37 24
2.47494 -21.8304 0.791867 31 37 24
2.47496 -21.8304 0.801407 30 36 23
2.47499 -21.8304 0.810948 30 35 23
2.47501 -21.8304 0.820489 29 35 22
2.47504 -21.8304 0.830029 28 34 22
2.4723 -21.8061 0.838633 27 34 22
2.47232 -21.8061 0.848163 26 33 21
2.47235 -21.8061 0.857693 26 32 21
2.47237 -21.8061 0.867223 25 32 20
2.4724 -21.8061 0.876753 25 32 20
2.47242 -21.8061 0.886282 24 31 20
2.47245 -21.8061 0.895812 24 31 20
2.47247 -21.8061 0.905342 23 31 19
2.4725 -21.8061 0.914872 23 30 19
2.47252 -21.8061 0.924402 23 30 19
2.47255 -21.8061 0.933932 23 30 19
2.47257 -21.8061 0.943462 22 30 19
2.4726 -21.8061 0.952992 22 30 19
2.47262 -21.8061 0.962522 22 30 19
2.47264 -21.8061 0.972052 22 30 19
2.47267 -21.8061 0.981582 22 30 19
2.47269 -21.8061 0.991112 22 30 19
2.47272 -21.8061 1.00064 22 30 19
2.47274 -21.8061 1.01017 22 30 19
2.47277 -21.8061 1.0197 22 30 19
2.47279 -21.8061 1.02923 22 30 19
2.47282 -21.8061 1.03876 22 30 19
2.47284 -21.8061 1.04829 22 31 19
2.47287 -21.8061 1.05782 23 31 20
2.47289 -21.8061 1.06735 23 31 20
2.47292 -21.8061 1.07688 23 31 20
2.47294 -21.8061 1.08641 23 31 20
2.47297 -21.8061 1.09594 23 32 20
2.47299 -21.8061 1.10547 24 32 20
2.47302 -21.8061 1.115 24 32 21
2.47304 -21.8061 1.12453 24 32 21
2.47306 -21.8061 1.13406 24 32 21
2.47309 -21.8061 1.14359 24 33 21
2.47311 -21.8061 1.15312 25 33 21
2.47314 -21.8061 1.16265 25 33 21
2.47316 -21.8061 1.17218 25 33 21
2.47319 -21.8061 1.18171 25 33 21
2.47321 -21.8061 1.19124 26 33 21
2.47324 -21.8061 1.20077 26 34 22
2.47326 -21.8061 1.2103 27 34 22
2.47329 -21.8061 1.21983 27 34 22
2.47331 -21.8061 1.22936 27 34 22
2.4761 -21.8304 1.24027 27 34 22
2.47612 -21.8304 1.24982 28 35 22
2.47615 -21.8304 1.25936 28 35 22
2.47617 -21.8304 1.2689 28 35 22
2.4762 -21.8304 1.27844 28 35 22
2.47622 -21.8304 1.28798 28 35 22
2.47625 -21.8304 1.29752 28 35 22
2.47627 -21.8304 1.30706 28 35 22
2.4763 -21.8304 1.3166 28 35 22
2.47632 -21.8304 1.32614 28 35 22
2.50433 -22.0771 1.35077 28 35 22
2.50435 -22.0771 1.36042 28 35 22
2.50438 -22.0771 1.37007 28 35 22
2.5044 -22.0771 1.37972 28 35 22
2.50443 -22.0771 1.38937 27 35 22
2.50445 -22.0771 1.39902 27 35 22
2.50448 -22.0771 1.40866 27 35 22
2.5045 -22.0771 1.41831 27 35 22
2.50453 -22.0771 1.42796 26 35 22
2.50455 -22.0771 1.43761 26 35 22
2.50458 -22.0771 1.44726 26 35 22
2.5046 -22.0771 1.45691 26 35 22
2.50463 -22.0771 1.46655 25 35 22
2.50465 -22.0771 1.4762 25 35 22
2.51891 -22.2026 1.49429 25 35 22
2.51893 -22.2026 1.504 25 35 22
2.51896 -22.2026 1.5137 25 36 22
2.51898 -22.2026 1.5234 25 36 22
2.51901 -22.2026 1.53311 25 36 22
2.51903 -22.2026 1.54281 25 36 22
2.51906 -22.2026 1.55251 25 36 22
2.51908 -22.2026 1.56222 25 36 22
2.51911 -22.2026 1.57192 26 37 23
2.51913 -22.2026 1.58162 26 37 23
2.51916 -22.2026 1.59133 26 37 23
2.51918 -22.2026 1.60103 26 37 23
2.51921 -22.2026 1.61073 27 37 24
2.51924 -22.2026 1.62044 27 38 24
2.51926 -22.2026 1.63014 27 38 24
2.51929 -22.2026 1.63984 27 38 25
2.50508 -22.0771 1.64023 28 38 25
2.5051 -22.0771 1.64987 28 38 25
2.50513 -22.0771 1.65952 28 38 26
2.50515 -22.0771 1.66917 28 39 26
2.50518 -22.0771 1.67882 29 39 26
2.5052 -22.0771 1.68847 29 39 27
2.51946 -22.2026 1.70776 29 39 27
2.51949 -22.2026 1.71747 30 39 27
2.51951 -22.2026 1.72717 30 40 28
2.51954 -22.2026 1.73687 30 40 28
2.52243 -22.2278 1.74856 30 40 28
2.52245 -22.2278 1.75828 31 40 29
2.52248 -22.2278 1.76799 31 40 29
2.5225 -22.2278 1.77771 31 40 29
2.52278 -22.2278 1.88456 33 41 31
2.52281 -22.2278 1.89428 33 41 31
2.51996 -22.2026 1.90183 33 41 31
2.51999 -22.2026 1.91153 33 41 31
2.52001 -22.2026 1.92124 33 41 31
2.52004 -22.2026 1.93094 33 40 31
2.52006 -22.2026 1.94064 33 40 31
2.52009 -22.2026 1.95035 32 40 31
2.52011 -22.2026 1.96005 32 40 31
2.52014 -22.2026 1.96975 32 39 30
2.52303 -22.2278 1.98171 32 39 30
2.52306 -22.2278 1.99142 32 39 30
3.15422 -27.5187 14.2875 40 48 39
3.15425 -27.5187 14.2995 40 48 39
3.15428 -27.5187 14.3116 40 48 39
3.15432 -27.5187 14.3236 40 48 39
3.10272 -27.0613 14.4049 40 47 38
3.10275 -27.0613 14.4167 40 47 38
3.17829 -27.7138 15.0429 40 48 39
3.17832 -27.7138 15.055 40 48 39
3.8742 -34.1537 -3.67234 34 45 33
3.87424 -34.1537 -3.65741 34 45 33
3.87428 -34.1537 -3.64248 34 45 33
3.87431 -34.1537 -3.62756 34 44 32
2.5352 -22.3267 -1.40528 25 33 23
2.53522 -22.3267 -1.39552 25 34 23
2.53525 -22.3267 -1.38576 25 34 23
2.53527 -22.3267 -1.376 25 34 23
2.53535 -22.3267 -1.34672 25 34 23
2.53537 -22.3267 -1.33697 25 34 23
2.5354 -22.3267 -1.32721 25 34 23
2.53542 -22.3267 -1.31745 25 34 22
2.53545 -22.3267 -1.30769 25 34 22
2.53547 -22.3267 -1.29793 24 34 22
2.5355 -22.3267 -1.28817 24 34 22
2.53552 -22.3267 -1.27841 24 34 22
2.52114 -22.1999 -1.26145 24 34 22
2.52117 -22.1999 -1.25174 24 34 22
2.52119 -22.1999 -1.24204 24 34 22
2.52122 -22.1999 -1.23234 24 34 22
2.52124 -22.1999 -1.22263 24 34 21
2.52127 -22.1999 -1.21293 24 34 21
2.52129 -22.1999 -1.20323 24 34 21
2.52132 -22.1999 -1.19352 24 34 21
2.52134 -22.1999 -1.18382 24 34 21
2.52137 -22.1999 -1.17412 24 34 21
2.52139 -22.1999 -1.16441 24 34 21
2.52142 -22.1999 -1.15471 24 34 21
2.51858 -22.1747 -1.14371 24 34 21
2.51861 -22.1747 -1.13402 24 34 21
2.51863 -22.1747 -1.12432 24 34 21
2.51866 -22.1747 -1.11463 25 34 21
2.52155 -22.1999 -1.1062 25 34 21
2.52157 -22.1999 -1.09649 25 35 22
2.5216 -22.1999 -1.08679 25 35 22
2.52162 -22.1999 -1.07709 25 35 22
2.52165 -22.1999 -1.06738 26 35 22
2.52167 -22.1999 -1.05768 26 35 22
2.51883 -22.1747 -1.04679 26 35 22
2.51886 -22.1747 -1.03709 27 36 22
2.51888 -22.1747 -1.0274 27 36 23
2.51891 -22.1747 -1.01771 27 36 23
2.51893 -22.1747 -1.00802 28 36 23
2.51896 -22.1747 -0.998325 28 36 23
2.51898 -22.1747 -0.988633 28 36 23
2.51901 -22.1747 -0.978941 28 36 23
2.51903 -22.1747 -0.969248 28 36 23
2.51906 -22.1747 -0.959556 28 36 23
2.49081 -21.9258 -0.939203 29 36 23
2.49084 -21.9258 -0.92962 29 36 23
2.49086 -21.9258 -0.920037 29 36 23
2.49089 -21.9258 -0.910453 29 36 23
2.47701 -21.8035 -0.895843 28 36 23
2.47704 -21.8035 -0.886313 28 36 23
2.49096 -21.9258 -0.881703 28 35 23
2.49099 -21.9258 -0.872119 28 35 22
2.51929 -22.1747 -0.872326 28 35 22
2.51931 -22.1747 -0.862634 28 35 22
2.5222 -22.1999 -0.853911 27 35 22
2.52222 -22.1999 -0.844208 27 34 22
2.52225 -22.1999 -0.834505 27 34 22
2.52227 -22.1999 -0.824802 27 34 22
2.5223 -22.1999 -0.815098 26 34 21
2.52232 -22.1999 -0.805395 26 34 21
2.52235 -22.1999 -0.795692 26 33 21
2.52237 -22.1999 -0.785989 25 33 21
2.53681 -22.3267 -0.780721 25 33 21
2.53684 -22.3267 -0.770963 25 33 21
2.53686 -22.3267 -0.761204 24 33 21
2.53689 -22.3267 -0.751445 24 32 20
2.5225 -22.1999 -0.737473 24 32 20
2.52253 -22.1999 -0.727769 24 32 20
2.51969 -22.1747 -0.717251 23 32 20
2.51971 -22.1747 -0.707559 23 32 20
2.51974 -22.1747 -0.697867 23 32 20
2.51976 -22.1747 -0.688174 23 32 20
2.51979 -22.1747 -0.678482 23 31 19
2.51981 -22.1747 -0.66879 23 31 19
2.47765 -21.8035 -0.648064 23 31 19
2.47768 -21.8035 -0.638534 23 31 19
2.4777 -21.8035 -0.629004 23 31 19
2.47773 -21.8035 -0.619474 23 32 19
2.47775 -21.8035 -0.609944 23 32 20
2.47778 -21.8035 -0.600414 23 32 20
2.4778 -21.8035 -0.590884 24 32 20
2.47783 -21.8035 -0.581354 24 32 20
2.47785 -21.8035 -0.571824 24 32 20
2.47787 -21.8035 -0.562294 25 33 20
2.4779 -21.8035 -0.552764 25 33 20
2.47792 -21.8035 -0.543234 26 33 21
2.47795 -21.8035 -0.533704 26 33 21
2.47797 -21.8035 -0.524174 27 34 21
2.478 -21.8035 -0.514644 27 34 21
2.47802 -21.8035 -0.505114 28 34 22
2.47805 -21.8035 -0.495584 28 34 22
2.47807 -21.8035 -0.486055 29 35 22
2.4781 -21.8035 -0.476525 29 35 22
2.47812 -21.8035 -0.466995 29 35 22
2.47815 -21.8035 -0.457465 30 35 23
2.47817 -21.8035 -0.447935 30 35 23
2.4782 -21.8035 -0.438405 30 35 23
2.47822 -21.8035 -0.428875 30 35 23
2.49215 -21.9258 -0.421698 30 35 23
2.49218 -21.9258 -0.412115 30 35 23
2.4922 -21.9258 -0.402531 30 35 23
2.49223 -21.9258 -0.392948 30 35 23
2.49225 -21.9258 -0.383364 30 35 22
2.49228 -21.9258 -0.373781 30 34 22
2.47839 -21.8035 -0.362165 30 34 22
2.47842 -21.8035 -0.352635 29 34 22
2.49235 -21.9258 -0.345031 29 33 22
2.49238 -21.9258 -0.335447 29 33 22
2.4924 -21.9258 -0.325864 28 33 21
2.49242 -21.9258 -0.31628 28 33 21
2.52074 -22.1747 -0.310178 28 32 21
2.52077 -22.1747 -0.300486 27 32 21
2.52079 -22.1747 -0.290794 27 32 21
2.52082 -22.1747 -0.281101 27 31 21
2.52084 -22.1747 -0.271409 26 31 20
2.52087 -22.1747 -0.261717 26 31 20
2.52089 -22.1747 -0.252025 25 31 20
2.52092 -22.1747 -0.242333 25 31 20
2.52094 -22.1747 -0.23264 25 30 20
2.52097 -22.1747 -0.222948 25 30 20
2.52099 -22.1747 -0.213256 25 30 20
2.52102 -22.1747 -0.203564 24 30 20
2.47884 -21.8035 -0.190626 24 30 20
2.47886 -21.8035 -0.181096 24 30 20
2.47889 -21.8035 -0.171566 24 30 20
2.47891 -21.8035 -0.162036 24 30 20
2.47894 -21.8035 -0.152506 24 30 20
2.47896 -21.8035 -0.142976 24 31 20
2.47899 -21.8035 -0.133446 25 31 20
2.47901 -21.8035 -0.123916 25 31 20
2.47903 -21.8035 -0.114386 25 31 20
2.47906 -21.8035 -0.104856 25 31 20
2.47908 -21.8035 -0.0953264 26 32 21
2.47911 -21.8035 -0.0857965 26 32 21
2.47913 -21.8035 -0.0762665 26 32 21
2.47916 -21.8035 -0.0667366 26 32 21
2.47918 -21.8035 -0.0572066 26 32 21
2.47921 -21.8035 -0.0476767 26 32 21
2.47923 -21.8035 -0.0381467 26 32 21
2.47926 -21.8035 -0.0286167 26 32 21
2.47928 -21.8035 -0.0190868 27 32 21
2.47931 -21.8035 -0.00955684 27 32 21
2.47933 -21.8035 -2.68859e-05 27 32 21
2.47936 -21.8035 0.00950307 26 32 21
2.47938 -21.8035 0.019033 26 32 21
2.4794 -21.8035 0.028563 26 32 21
2.49334 -21.9258 0.0383067 26 32 21
2.49337 -21.9258 0.0478901 26 32 21
2.49339 -21.9258 0.0574736 26 32 21
2.49342 -21.9258 0.067057 26 32 21
2.52174 -22.1747 0.0775103 26 32 21
2.52177 -22.1747 0.0872026 26 32 21
2.52179 -22.1747 0.0968948 26 32 21
2.52182 -22.1747 0.106587 26 32 21
2.52184 -22.1747 0.116279 25 32 21
2.52187 -22.1747 0.125971 25 32 21
2.5219 -22.1747 0.135664 25 32 21
2.52192 -22.1747 0.145356 25 32 21
2.52195 -22.1747 0.155048 25 32 21
2.52197 -22.1747 0.16474 25 32 21
2.522 -22.1747 0.174432 25 32 21
2.52202 -22.1747 0.184125 25 32 21
2.52205 -22.1747 0.193817 25 32 21
2.52207 -22.1747 0.203509 25 32 21
2.5221 -22.1747 0.213201 25 32 21
2.52212 -22.1747 0.222894 24 32 21
2.49384 -21.9258 0.229975 24 32 21
2.49386 -21.9258 0.239559 24 32 21
2.49389 -21.9258 0.249142 24 32 21
2.49391 -21.9258 0.258726 24 32 21
2.48002 -21.8035 0.266812 24 32 21
2.48005 -21.8035 0.276342 24 32 21
2.48007 -21.8035 0.285872 24 32 21
2.4801 -21.8035 0.295402 24 32 21
2.48012 -21.8035 0.304932 24 32 21
2.48014 -21.8035 0.314462 24 32 21
2.49409 -21.9258 0.32581 24 32 21
2.49411 -21.9258 0.335393 24 32 21
2.49414 -21.9258 0.344977 24 32 21
2.49416 -21.9258 0.35456 25 32 21
2.49419 -21.9258 0.364143 25 32 21
2.49421 -21.9258 0.373727 25 32 21
2.48032 -21.8035 0.381171 25 32 21
2.48034 -21.8035 0.390701 25 33 21
2.48037 -21.8035 0.400231 25 33 21
2.48039 -21.8035 0.409761 26 33 21
2.48042 -21.8035 0.419291 26 33 21
2.48044 -21.8035 0.428821 26 33 21
2.48047 -21.8035 0.438351 26 33 21
2.48049 -21.8035 0.447881 26 33 21
2.48051 -21.8035 0.457411 26 33 21
2.48054 -21.8035 0.466941 26 33 21
2.48056 -21.8035 0.476471 27 33 21
2.48059 -21.8035 0.486001 27 33 21
2.48061 -21.8035 0.495531 27 33 21
2.48064 -21.8035 0.505061 27 33 21
2.48066 -21.8035 0.514591 27 33 21
2.48069 -21.8035 0.524121 27 33 21
2.48071 -21.8035 0.533651 28 33 21
2.48074 -21.8035 0.54318 28 33 21
2.48076 -21.8035 0.55271 28 33 22
2.48079 -21.8035 0.56224 29 33 22
2.48081 -21.8035 0.57177 29 34 22
2.48084 -21.8035 0.5813 30 34 22
2.48086 -21.8035 0.59083 30 34 22
2.48088 -21.8035 0.60036 31 35 23
2.48091 -21.8035 0.60989 32 35 23
2.48093 -21.8035 0.61942 32 36 23
2.48096 -21.8035 0.62895 33 36 24
2.48098 -21.8035 0.63848 34 37 24
2.48101 -21.8035 0.64801 34 37 24
2.48103 -21.8035 0.65754 35 38 25
2.48106 -21.8035 0.66707 35 38 25
2.48108 -21.8035 0.6766 35 38 25
2.48111 -21.8035 0.68613 35 38 25
2.48113 -21.8035 0.69566 35 39 25
2.48116 -21.8035 0.70519 35 39 25
2.48118 -21.8035 0.71472 35 39 25
2.48121 -21.8035 0.72425 35 38 25
2.48123 -21.8035 0.73378 34 38 25
2.48125 -21.8035 0.743309 34 38 25
2.48128 -21.8035 0.752839 33 38 25
2.4813 -21.8035 0.762369 33 38 24
2.48133 -21.8035 0.771899 32 37 24
2.48135 -21.8035 0.781429 32 37 24
2.48138 -21.8035 0.790959 31 36 23
2.4814 -21.8035 0.800489 30 36 23
2.48143 -21.8035 0.810019 29 35 23
2.48145 -21.8035 0.819549 29 35 22
2.48148 -21.8035 0.829079 28 34 22
2.4815 -21.8035 0.838609 27 34 22
2.48153 -21.8035 0.848139 26 33 21
2.48155 -21.8035 0.857669 26 33 21
2.48158 -21.8035 0.867199 25 32 20
2.4816 -21.8035 0.876729 25 32 20
2.48163 -21.8035 0.886259 24 31 20
2.48165 -21.8035 0.895789 24 31 20
2.48167 -21.8035 0.905319 23 31 20
2.4817 -21.8035 0.914849 23 31 19
2.48172 -21.8035 0.924379 23 30 19
2.48175 -21.8035 0.933909 23 30 19
2.48177 -21.8035 0.943439 22 30 19
2.4818 -21.8035 0.952968 22 30 19
2.48182 -21.8035 0.962498 22 30 19
2.48185 -21.8035 0.972028 22 30 19
2.48187 -21.8035 0.981558 22 30 19
2.4819 -21.8035 0.991088 22 30 19
2.48192 -21.8035 1.00062 22 30 19
2.48195 -21.8035 1.01015 22 30 19
2.48197 -21.8035 1.01968 22 30 19
2.482 -21.8035 1.02921 22 30 19
2.48202 -21.8035 1.03874 22 31 19
2.48204 -21.8035 1.04827 22 31 20
2.48207 -21.8035 1.0578 22 31 20
2.48209 -21.8035 1.06733 23 31 20
2.48212 -21.8035 1.07686 23 31 20
2.48214 -21.8035 1.08639 23 32 20
2.48217 -21.8035 1.09592 23 32 20
2.48219 -21.8035 1.10545 23 32 20
2.48222 -21.8035 1.11498 24 32 21
2.48224 -21.8035 1.12451 24 32 21
2.48227 -21.8035 1.13404 24 32 21
2.48229 -21.8035 1.14357 24 33 21
2.48232 -21.8035 1.1531 24 33 21
2.48234 -21.8035 1.16263 25 33 21
2.48237 -21.8035 1.17216 25 33 21
2.48239 -21.8035 1.18169 25 33 21
2.48241 -21.8035 1.19122 25 33 21
2.48244 -21.8035 1.20075 26 34 22
2.48246 -21.8035 1.21028 26 34 22
2.48249 -21.8035 1.21981 26 34 22
2.48251 -21.8035 1.22934 27 34 22
2.48254 -21.8035 1.23887 27 34 22
2.48256 -21.8035 1.2484 27 34 22
2.48259 -21.8035 1.25793 27 34 22
2.48261 -21.8035 1.26746 28 34 22
2.48264 -21.8035 1.27699 28 35 22
2.48266 -21.8035 1.28652 28 35 22
2.48269 -21.8035 1.29605 28 35 22
2.48271 -21.8035 1.30558 28 35 22
2.48274 -21.8035 1.31511 28 35 22
2.48276 -21.8035 1.32464 28 35 22
2.49672 -21.9258 1.34165 28 35 22
2.49674 -21.9258 1.35124 28 35 22
2.49677 -21.9258 1.36082 27 35 22
2.49679 -21.9258 1.3704 27 35 22
2.49682 -21.9258 1.37999 27 35 22
2.49684 -21.9258 1.38957 27 35 22
2.49687 -21.9258 1.39915 27 35 22
2.49689 -21.9258 1.40874 26 35 22
2.49692 -21.9258 1.41832 26 35 22
2.49694 -21.9258 1.4279 26 35 22
2.49697 -21.9258 1.43749 26 35 22
2.49699 -21.9258 1.44707 26 35 22
2.49701 -21.9258 1.45665 25 35 22
2.49704 -21.9258 1.46624 25 35 22
2.52541 -22.1747 1.49257 25 36 22
2.52543 -22.1747 1.50227 25 36 22
2.52546 -22.1747 1.51196 25 36 22
2.52548 -22.1747 1.52165 25 36 22
2.49746 -21.9258 1.62916 28 38 26
2.49749 -21.9258 1.63874 28 39 26
2.49751 -21.9258 1.64832 29 39 26
2.49754 -21.9258 1.65791 29 39 27
2.49756 -21.9258 1.66749 29 39 27
2.49759 -21.9258 1.67707 30 39 27
3.11414 -27.058 14.4048 39 47 38
3.11417 -27.058 14.4166 39 47 38
2.53304 -22.2225 -1.39891 24 33 22
2.53306 -22.2225 -1.38919 25 34 23
2.53309 -22.2225 -1.37948 25 34 23
2.53311 -22.2225 -1.36976 25 34 23
2.53319 -22.2225 -1.34062 25 34 23
2.53322 -22.2225 -1.33091 25 34 22
2.53324 -22.2225 -1.32119 25 34 22
2.53327 -22.2225 -1.31148 25 34 22
2.53329 -22.2225 -1.30176 24 34 22
2.53332 -22.2225 -1.29205 24 34 22
2.53334 -22.2225 -1.28233 24 34 22
2.53337 -22.2225 -1.27262 24 34 22
2.53051 -22.1972 -1.26147 24 34 22
2.53054 -22.1972 -1.25177 24 34 22
2.53056 -22.1972 -1.24206 24 34 22
2.53059 -22.1972 -1.23236 24 34 22
2.53061 -22.1972 -1.22266 24 34 22
2.53064 -22.1972 -1.21295 24 34 21
2.53066 -22.1972 -1.20325 24 34 21
2.53069 -22.1972 -1.19355 24 34 21
2.53071 -22.1972 -1.18384 24 34 21
2.53074 -22.1972 -1.17414 24 34 21
2.53076 -22.1972 -1.16444 25 34 21
2.53079 -22.1972 -1.15474 25 34 22
2.51652 -22.0718 -1.13856 25 35 22
2.51654 -22.0718 -1.12891 25 35 22
2.51657 -22.0718 -1.11927 25 35 22
2.51659 -22.0718 -1.10962 25 35 22
2.53091 -22.1972 -1.10622 25 35 22
2.53094 -22.1972 -1.09652 26 35 22
2.53096 -22.1972 -1.08681 26 35 22
2.53099 -22.1972 -1.07711 26 36 22
2.53102 -22.1972 -1.06741 27 36 22
2.53104 -22.1972 -1.0577 27 36 23
2.51677 -22.0718 -1.04208 27 36 23
2.51679 -22.0718 -1.03243 28 36 23
2.51682 -22.0718 -1.02278 28 37 23
2.51684 -22.0718 -1.01313 28 37 23
2.51687 -22.0718 -1.00349 29 37 23
2.51689 -22.0718 -0.993837 29 37 23
2.51692 -22.0718 -0.984189 29 37 23
2.51694 -22.0718 -0.97454 29 37 23
2.51697 -22.0718 -0.964892 29 37 23
2.51699 -22.0718 -0.955243 29 37 23
2.48889 -21.8252 -0.93503 29 37 23
2.48892 -21.8252 -0.925489 29 37 23
2.48894 -21.8252 -0.915948 29 37 23
2.48897 -21.8252 -0.906408 29 36 23
2.48621 -21.8008 -0.895866 29 36 23
2.48624 -21.8008 -0.886336 29 36 23
2.48904 -21.8252 -0.877786 29 36 23
2.48907 -21.8252 -0.868245 29 36 23
2.51722 -22.0718 -0.868408 28 36 23
2.51724 -22.0718 -0.858759 28 35 22
2.53157 -22.1972 -0.853935 28 35 22
2.53159 -22.1972 -0.844232 28 35 22
2.53162 -22.1972 -0.834529 27 35 22
2.53164 -22.1972 -0.824826 27 34 22
2.53167 -22.1972 -0.815122 27 34 22
2.53169 -22.1972 -0.805419 26 34 21
2.53172 -22.1972 -0.795716 26 34 21
2.53174 -22.1972 -0.786013 26 33 21
2.53465 -22.2225 -0.777193 25 33 21
2.53467 -22.2225 -0.767478 25 33 21
2.5347 -22.2225 -0.757764 25 33 21
2.53472 -22.2225 -0.74805 24 33 20
2.53187 -22.1972 -0.737497 24 32 20
2.53189 -22.1972 -0.727793 24 32 20
2.51761 -22.0718 -0.714033 24 32 20
2.51764 -22.0718 -0.704385 23 32 20
2.51766 -22.0718 -0.694736 23 32 20
2.51769 -22.0718 -0.685088 23 32 20
2.51771 -22.0718 -0.67544 23 31 20
2.51774 -22.0718 -0.665791 23 31 19
2.48685 -21.8008 -0.648087 23 31 19
2.48688 -21.8008 -0.638557 23 31 19
2.4869 -21.8008 -0.629028 23 32 19
2.48693 -21.8008 -0.619498 23 32 20
2.48695 -21.8008 -0.609968 24 32 20
2.48698 -21.8008 -0.600438 24 32 20
2.487 -21.8008 -0.590908 24 32 20
2.48703 -21.8008 -0.581378 24 32 20
2.48705 -21.8008 -0.571848 25 33 20
2.48708 -21.8008 -0.562318 25 33 20
2.4871 -21.8008 -0.552788 26 33 21
2.48713 -21.8008 -0.543258 26 33 21
2.48715 -21.8008 -0.533728 27 34 21
2.48718 -21.8008 -0.524198 27 34 21
2.4872 -21.8008 -0.514668 28 34 22
2.48722 -21.8008 -0.505138 28 34 22
2.48725 -21.8008 -0.495608 29 35 22
2.48727 -21.8008 -0.486078 29 35 22
2.4873 -21.8008 -0.476548 30 35 22
2.48732 -21.8008 -0.467018 30 35 23
2.48735 -21.8008 -0.457488 30 35 23
2.48737 -21.8008 -0.447958 31 35 23
2.4874 -21.8008 -0.438428 31 35 23
2.48742 -21.8008 -0.428898 31 35 23
2.49023 -21.8252 -0.419837 31 35 23
2.49025 -21.8252 -0.410296 31 35 23
2.49028 -21.8252 -0.400756 31 35 23
2.4903 -21.8252 -0.391215 31 35 23
2.49032 -21.8252 -0.381675 30 34 22
2.49035 -21.8252 -0.372134 30 34 22
2.48759 -21.8008 -0.362189 30 34 22
2.48762 -21.8008 -0.352659 30 34 22
2.49042 -21.8252 -0.343512 29 33 22
2.49045 -21.8252 -0.333972 29 33 22
2.49047 -21.8252 -0.324431 29 33 21
2.4905 -21.8252 -0.31489 28 32 21
2.51866 -22.0718 -0.3088 28 32 21
2.51869 -22.0718 -0.299152 28 32 21
2.51871 -22.0718 -0.289503 27 31 21
2.51874 -22.0718 -0.279855 27 31 21
2.51876 -22.0718 -0.270207 26 31 20
2.51879 -22.0718 -0.260558 26 31 20
2.51881 -22.0718 -0.25091 26 31 20
2.51884 -22.0718 -0.241261 25 30 20
2.51886 -22.0718 -0.231613 25 30 20
2.51889 -22.0718 -0.221965 25 30 20
2.51891 -22.0718 -0.212316 25 30 20
2.51894 -22.0718 -0.202668 25 30 20
2.48804 -21.8008 -0.19065 24 30 20
2.48806 -21.8008 -0.18112 24 30 20
2.48809 -21.8008 -0.17159 24 30 20
2.48811 -21.8008 -0.16206 24 30 20
2.48814 -21.8008 -0.15253 24 30 20
2.48816 -21.8008 -0.143 25 30 20
2.48819 -21.8008 -0.13347 25 30 20
2.48821 -21.8008 -0.12394 25 31 20
2.48824 -21.8008 -0.11441 25 31 20
2.48826 -21.8008 -0.10488 25 31 20
2.48829 -21.8008 -0.0953501 26 31 20
2.48831 -21.8008 -0.0858202 26 31 21
2.48834 -21.8008 -0.0762902 26 32 21
2.48836 -21.8008 -0.0667603 26 32 21
2.48838 -21.8008 -0.0572303 26 32 21
2.48841 -21.8008 -0.0477003 26 32 21
2.48843 -21.8008 -0.0381704 26 32 21
2.48846 -21.8008 -0.0286404 26 32 21
2.48848 -21.8008 -0.0191105 26 32 21
2.48851 -21.8008 -0.00958053 26 32 21
2.48853 -21.8008 -5.05763e-05 26 32 21
2.48856 -21.8008 0.00947938 26 32 21
2.48858 -21.8008 0.0190093 26 32 21
2.48861 -21.8008 0.0285393 26 32 21
2.49141 -21.8252 0.0381118 26 31 21
2.49144 -21.8252 0.0476524 26 31 21
2.49146 -21.8252 0.057193 26 31 21
2.49149 -21.8252 0.0667336 26 31 21
2.51966 -22.0718 0.077136 26 31 21
2.51969 -22.0718 0.0867844 25 31 21
2.51971 -22.0718 0.0964328 25 31 21
2.51974 -22.0718 0.106081 25 31 21
2.51976 -22.0718 0.11573 25 31 21
2.51979 -22.0718 0.125378 25 32 21
2.51981 -22.0718 0.135026 25 32 21
2.51984 -22.0718 0.144675 25 32 21
2.51986 -22.0718 0.154323 25 32 21
2.51989 -22.0718 0.163972 25 32 21
2.51991 -22.0718 0.17362 25 32 21
2.51994 -22.0718 0.183268 25 32 21
2.51996 -22.0718 0.192917 25 32 21
2.51999 -22.0718 0.202565 25 32 21
2.52001 -22.0718 0.212214 25 32 21
2.52004 -22.0718 0.221862 24 32 21
2.49191 -21.8252 0.228924 24 32 21
2.49193 -21.8252 0.238464 24 32 21
2.49196 -21.8252 0.248005 24 32 21
2.49198 -21.8252 0.257546 24 32 21
2.48922 -21.8008 0.266788 24 32 21
2.48925 -21.8008 0.276318 24 32 21
2.48927 -21.8008 0.285848 24 32 21
2.4893 -21.8008 0.295378 24 32 21
2.48932 -21.8008 0.304908 24 32 21
2.48935 -21.8008 0.314438 24 32 21
2.49215 -21.8252 0.32433 24 32 21
2.49218 -21.8252 0.33387 24 32 21
2.4922 -21.8252 0.343411 25 32 21
2.49223 -21.8252 0.352952 25 32 21
2.49225 -21.8252 0.362492 25 32 21
2.49228 -21.8252 0.372033 25 33 21
2.48952 -21.8008 0.381148 25 33 21
2.48954 -21.8008 0.390678 25 33 22
2.48957 -21.8008 0.400207 26 33 22
2.48959 -21.8008 0.409737 26 33 22
2.48962 -21.8008 0.419267 26 33 22
2.48964 -21.8008 0.428797 26 33 22
2.48967 -21.8008 0.438327 26 33 22
2.48969 -21.8008 0.447857 26 33 22
2.48972 -21.8008 0.457387 26 33 22
2.48974 -21.8008 0.466917 27 33 22
2.48977 -21.8008 0.476447 27 33 22
2.48979 -21.8008 0.485977 27 33 22
2.48982 -21.8008 0.495507 27 33 22
2.48984 -21.8008 0.505037 27 33 22
2.48986 -21.8008 0.514567 27 33 21
2.48989 -21.8008 0.524097 27 33 21
2.48991 -21.8008 0.533627 28 33 21
2.48994 -21.8008 0.543157 28 33 21
2.48996 -21.8008 0.552687 28 33 22
2.48999 -21.8008 0.562217 29 33 22
2.49001 -21.8008 0.571747 29 33 22
2.49004 -21.8008 0.581277 30 34 22
2.49006 -21.8008 0.590807 30 34 22
2.49009 -21.8008 0.600336 31 34 22
2.49011 -21.8008 0.609866 31 35 23
2.49014 -21.8008 0.619396 32 35 23
2.49016 -21.8008 0.628926 32 36 23
2.49019 -21.8008 0.638456 33 36 24
2.49021 -21.8008 0.647986 34 37 24
2.49023 -21.8008 0.657516 34 37 24
2.49026 -21.8008 0.667046 34 37 24
2.49028 -21.8008 0.676576 34 38 25
2.49031 -21.8008 0.686106 35 38 25
2.49033 -21.8008 0.695636 35 38 25
2.49036 -21.8008 0.705166 35 38 25
2.49038 -21.8008 0.714696 34 38 25
2.49041 -21.8008 0.724226 34 38 25
2.49043 -21.8008 0.733756 34 38 25
2.49046 -21.8008 0.743286 33 38 24
2.49048 -21.8008 0.752816 33 37 24
2.49051 -21.8008 0.762346 32 37 24
2.49053 -21.8008 0.771876 32 37 24
2.49056 -21.8008 0.781406 31 37 24
2.49058 -21.8008 0.790936 31 36 23
2.49061 -21.8008 0.800466 30 36 23
2.49063 -21.8008 0.809995 29 35 23
2.49065 -21.8008 0.819525 28 35 22
2.49068 -21.8008 0.829055 28 34 22
2.4907 -21.8008 0.838585 27 34 21
2.49073 -21.8008 0.848115 26 33 21
2.49075 -21.8008 0.857645 26 33 21
2.49078 -21.8008 0.867175 25 32 21
2.4908 -21.8008 0.876705 25 32 20
2.49083 -21.8008 0.886235 24 31 20
2.49085 -21.8008 0.895765 24 31 20
2.49088 -21.8008 0.905295 23 31 20
2.4909 -21.8008 0.914825 23 31 20
2.49093 -21.8008 0.924355 23 31 19
2.49095 -21.8008 0.933885 23 31 19
2.49098 -21.8008 0.943415 22 30 19
2.491 -21.8008 0.952945 22 30 19
2.49102 -21.8008 0.962475 22 30 19
2.49105 -21.8008 0.972005 22 30 19
2.49107 -21.8008 0.981535 22 30 19
2.4911 -21.8008 0.991065 22 30 19
2.49112 -21.8008 1.00059 22 30 19
2.49115 -21.8008 1.01012 22 31 19
2.49117 -21.8008 1.01965 22 31 19
2.4912 -21.8008 1.02918 22 31 20
2.49122 -21.8008 1.03871 22 31 20
2.49125 -21.8008 1.04824 22 31 20
2.49127 -21.8008 1.05777 22 31 20
2.4913 -21.8008 1.0673 23 31 20
2.49132 -21.8008 1.07683 23 32 20
2.49135 -21.8008 1.08636 23 32 20
2.49137 -21.8008 1.09589 23 32 20
2.49139 -21.8008 1.10542 23 32 20
2.49142 -21.8008 1.11495 23 32 21
2.49144 -21.8008 1.12448 24 32 21
2.49147 -21.8008 1.13401 24 33 21
2.49149 -21.8008 1.14354 24 33 21
2.49152 -21.8008 1.15307 24 33 21
2.49154 -21.8008 1.1626 24 33 21
2.49157 -21.8008 1.17213 25 33 21
2.49159 -21.8008 1.18166 25 33 21
2.49162 -21.8008 1.19119 25 33 21
2.49164 -21.8008 1.20072 25 33 22
2.49167 -21.8008 1.21025 26 34 22
2.49169 -21.8008 1.21978 26 34 22
2.49172 -21.8008 1.22931 26 34 22
2.49174 -21.8008 1.23884 27 34 22
2.49176 -21.8008 1.24837 27 34 22
2.49179 -21.8008 1.2579 27 34 22
2.49181 -21.8008 1.26743 27 34 22
2.49184 -21.8008 1.27696 27 34 22
2.49186 -21.8008 1.28649 27 34 22
2.49189 -21.8008 1.29602 27 34 22
2.49191 -21.8008 1.30555 27 34 22
2.49194 -21.8008 1.31508 27 34 22
2.49196 -21.8008 1.32461 27 35 22
2.49477 -21.8252 1.33563 27 35 22
2.4948 -21.8252 1.34517 27 35 22
2.49482 -21.8252 1.35471 27 35 22
2.49485 -21.8252 1.36426 27 35 22
2.49487 -21.8252 1.3738 27 35 22
2.49489 -21.8252 1.38334 27 35 22
2.49492 -21.8252 1.39288 26 35 22
2.49494 -21.8252 1.40242 26 35 22
2.49497 -21.8252 1.41196 26 35 22
2.49499 -21.8252 1.4215 26 35 22
2.49502 -21.8252 1.43104 26 35 22
2.49504 -21.8252 1.44058 26 35 22
2.49507 -21.8252 1.45012 25 36 22
2.49509 -21.8252 1.45966 25 36 22
2.52331 -22.0718 1.4858 25 36 22
2.52334 -22.0718 1.49545 25 36 22
2.52336 -22.0718 1.5051 25 36 22
2.52339 -22.0718 1.51475 26 36 22
2.52341 -22.0718 1.5244 26 37 23
2.52344 -22.0718 1.53405 26 37 23
2.52346 -22.0718 1.54369 26 37 23
2.52349 -22.0718 1.55334 26 37 23
2.52351 -22.0718 1.56299 27 37 24
2.52354 -22.0718 1.57264 27 38 24
2.52356 -22.0718 1.58229 27 38 24
2.52359 -22.0718 1.59194 27 38 24
2.52366 -22.0718 1.62088 28 39 25
2.52368 -22.0718 1.63053 28 39 26
2.49551 -21.8252 1.62185 29 39 26
2.49554 -21.8252 1.63139 29 39 26
2.49556 -21.8252 1.64093 29 39 27
2.49559 -21.8252 1.65047 30 39 27
2.49561 -21.8252 1.66001 30 40 27
2.49564 -21.8252 1.66955 30 40 28
2.52386 -22.0718 1.69807 30 40 28
2.52388 -22.0718 1.70772 31 40 28
2.52391 -22.0718 1.71736 31 40 29
2.52393 -22.0718 1.72701 31 41 29
3.82923 -33.5012 -3.66171 33 44 32
3.82927 -33.5012 -3.64706 33 44 32
3.89614 -34.0859 -3.69581 33 44 31
3.89618 -34.0859 -3.68091 33 43 31
2.53953 -22.1945 -1.39734 24 33 22
2.53956 -22.1945 -1.38764 24 34 22
2.53958 -22.1945 -1.37793 24 34 22
2.53961 -22.1945 -1.36823 25 34 22
2.53968 -22.1945 -1.33912 25 34 22
2.53971 -22.1945 -1.32942 25 34 22
2.53973 -22.1945 -1.31971 25 34 22
2.53976 -22.1945 -1.31001 25 34 22
2.53978 -22.1945 -1.30031 24 34 22
2.53981 -22.1945 -1.2906 24 34 22
2.53983 -22.1945 -1.2809 24 34 22
2.53986 -22.1945 -1.2712 24 34 22
2.53988 -22.1945 -1.26149 24 34 22
2.53991 -22.1945 -1.25179 24 34 22
