ply
format ascii 1.0
comment author : Loiseau & Broux
comment object : 3d point Cloud
element vertex 1317
property float x
property float y
property float z
property uchar red
property uchar green
property uchar blue
end_header
-3.5581 -79.8441 -8.22941 97 117 106
-3.55801 -79.8441 -8.19606 97 117 106
-3.7329 -83.7709 -8.56415 97 117 106
-3.73281 -83.7709 -8.52916 98 118 107
-3.79494 -85.167 -8.63574 98 118 107
-3.79484 -85.167 -8.60016 98 118 107
-3.79475 -85.167 -8.56458 99 119 107
-3.79466 -85.167 -8.52901 99 119 108
-3.79457 -85.167 -8.49343 99 119 108
-3.79447 -85.167 -8.45786 99 119 108
-3.79438 -85.167 -8.42228 98 119 108
-3.79429 -85.167 -8.38671 97 119 107
-3.7942 -85.167 -8.35113 96 117 106
-3.7941 -85.167 -8.31555 94 116 104
-3.55689 -79.8441 -7.76248 93 114 102
-3.5568 -79.8441 -7.72913 91 112 100
-3.73163 -83.7709 -8.07426 89 110 98
-3.73154 -83.7709 -8.03926 87 108 96
-3.79364 -85.167 -8.13767 84 105 94
-3.79355 -85.167 -8.1021 82 103 91
-3.79346 -85.167 -8.06652 79 100 88
-3.79337 -85.167 -8.03095 77 97 86
-3.55619 -79.8441 -7.49566 74 94 83
-3.55611 -79.8441 -7.46231 71 91 80
-3.55602 -79.8441 -7.42896 69 88 77
-3.55593 -79.8441 -7.3956 66 85 74
-3.7929 -85.167 -7.85307 63 82 71
-3.79281 -85.167 -7.81749 61 79 68
-3.79272 -85.167 -7.78192 58 77 66
-3.79263 -85.167 -7.74634 56 74 63
-3.79254 -85.167 -7.71077 54 72 61
-3.79244 -85.167 -7.67519 52 70 59
-3.79235 -85.167 -7.63961 51 68 57
-3.79226 -85.167 -7.60404 49 67 55
-3.79217 -85.167 -7.56846 48 65 54
-3.79207 -85.167 -7.53289 48 64 53
-4.06284 -91.2504 -8.03283 48 64 52
-4.06274 -91.2504 -7.99472 48 64 52
-4.06264 -91.2504 -7.9566 48 64 52
-4.06254 -91.2504 -7.91848 48 64 53
-4.06244 -91.2504 -7.88037 49 64 53
-4.06234 -91.2504 -7.84225 49 65 53
-4.06224 -91.2504 -7.80413 49 65 53
-4.06214 -91.2504 -7.76601 49 65 54
-4.06205 -91.2504 -7.7279 49 66 54
-4.06195 -91.2504 -7.68978 50 66 54
-4.06185 -91.2504 -7.65166 50 66 54
-4.06175 -91.2504 -7.61355 50 67 55
-4.37409 -98.2697 -8.15816 51 67 55
-4.37398 -98.2697 -8.11711 51 67 55
-4.37387 -98.2697 -8.07606 51 68 56
-4.37377 -98.2697 -8.03501 52 68 56
-4.37366 -98.2697 -7.99396 52 69 57
-4.37355 -98.2697 -7.95291 53 69 57
-4.37345 -98.2697 -7.91186 53 70 58
-4.37334 -98.2697 -7.87081 53 70 58
-4.13469 -92.9095 -7.40269 54 71 59
-4.13459 -92.9095 -7.36388 55 71 60
-4.37302 -98.2697 -7.74767 56 72 61
-4.37291 -98.2697 -7.70662 57 74 62
-4.37281 -98.2697 -7.66557 58 75 63
-4.3727 -98.2697 -7.62452 60 76 65
-4.37259 -98.2697 -7.58347 61 78 66
-4.37249 -98.2697 -7.54242 62 79 68
-4.37238 -98.2697 -7.50137 64 81 69
-4.37227 -98.2697 -7.46032 65 83 71
-4.37217 -98.2697 -7.41927 67 84 73
-4.37206 -98.2697 -7.37823 69 86 74
-4.37196 -98.2697 -7.33718 70 88 76
-4.37185 -98.2697 -7.29613 72 90 78
-4.37174 -98.2697 -7.25508 74 93 80
-4.37164 -98.2697 -7.21403 76 95 82
-4.37153 -98.2697 -7.17298 78 97 84
-4.37142 -98.2697 -7.13193 80 99 86
-4.37132 -98.2697 -7.09088 82 101 88
-4.37121 -98.2697 -7.04983 84 103 90
-4.3711 -98.2697 -7.00878 85 105 92
-4.371 -98.2697 -6.96774 87 106 93
-4.37089 -98.2697 -6.92669 88 108 95
-4.37078 -98.2697 -6.88564 89 109 96
-4.37068 -98.2697 -6.84459 90 111 97
-4.37057 -98.2697 -6.80354 91 112 98
-4.37046 -98.2697 -6.76249 91 112 99
-4.37036 -98.2697 -6.72144 91 112 99
-4.37025 -98.2697 -6.68039 91 112 99
-4.37014 -98.2697 -6.63934 91 112 99
-4.37004 -98.2697 -6.59829 90 112 99
-4.36993 -98.2697 -6.55725 90 112 98
-4.36982 -98.2697 -6.5162 90 111 98
-4.36972 -98.2697 -6.47515 89 111 97
-4.36961 -98.2697 -6.4341 88 110 97
-4.36951 -98.2697 -6.39305 87 109 96
-4.3694 -98.2697 -6.352 87 109 95
-4.36929 -98.2697 -6.31095 86 108 94
-4.36919 -98.2697 -6.2699 85 107 93
-4.36908 -98.2697 -6.22885 83 106 92
-4.36897 -98.2697 -6.18781 82 104 91
-4.36887 -98.2697 -6.14676 80 103 90
-4.36876 -98.2697 -6.10571 78 101 88
-4.36865 -98.2697 -6.06466 77 99 86
-4.36855 -98.2697 -6.02361 75 98 85
-4.36844 -98.2697 -5.98256 74 96 84
-4.36833 -98.2697 -5.94151 74 96 84
-4.36823 -98.2697 -5.90046 74 95 83
-4.36812 -98.2697 -5.85941 74 95 83
-4.36801 -98.2697 -5.81836 74 95 83
-4.63533 -104.286 -6.13103 74 95 83
-4.63522 -104.286 -6.08747 74 95 83
-4.6351 -104.286 -6.0439 74 95 84
-4.63499 -104.286 -6.00034 74 95 83
-4.36748 -98.2697 -5.61312 74 95 83
-4.36738 -98.2697 -5.57207 74 95 83
-4.36727 -98.2697 -5.53102 73 95 83
-4.36716 -98.2697 -5.48997 73 94 82
-4.42641 -100.197 4.57287 101 118 104
-4.4263 -100.197 4.61472 103 120 106
-4.70675 -106.446 -13.1072 22 30 24
-4.70663 -106.446 -13.0627 22 30 25
-4.34448 -98.2583 -12.0169 23 31 25
-4.34437 -98.2583 -11.9758 23 31 25
-4.34427 -98.2583 -11.9348 23 32 26
-4.34416 -98.2583 -11.8937 24 32 26
-4.34405 -98.2583 -11.8527 24 33 27
-4.34395 -98.2583 -11.8116 24 33 27
-4.34384 -98.2583 -11.7706 25 33 28
-4.34373 -98.2583 -11.7295 25 34 29
-4.26167 -96.4044 -11.4679 27 35 30
-4.26157 -96.4044 -11.4277 28 37 32
-4.03317 -91.2398 -10.7773 30 39 34
-4.03307 -91.2398 -10.7392 33 42 36
-4.1061 -92.8987 -10.8181 41 51 45
-4.106 -92.8987 -10.7792 44 55 48
-3.76374 -85.1572 -9.8454 47 58 52
-3.76365 -85.1572 -9.80982 51 62 56
-3.76355 -85.1572 -9.77425 54 66 59
-3.76346 -85.1572 -9.73867 58 70 63
-3.76337 -85.1572 -9.7031 61 74 67
-3.76328 -85.1572 -9.66752 65 78 71
-3.76318 -85.1572 -9.63195 68 82 74
-3.76309 -85.1572 -9.59637 72 86 78
-3.763 -85.1572 -9.56079 75 90 82
-3.76291 -85.1572 -9.52522 78 94 85
-3.76281 -85.1572 -9.48964 81 97 88
-3.76272 -85.1572 -9.45407 84 101 91
-3.76263 -85.1572 -9.41849 86 104 94
-3.76254 -85.1572 -9.38292 89 107 97
-3.76245 -85.1572 -9.34734 91 109 99
-3.76235 -85.1572 -9.31176 93 111 101
-3.76226 -85.1572 -9.27619 94 113 103
-3.76217 -85.1572 -9.24061 95 115 104
-3.58293 -81.1021 -8.7667 96 116 105
-3.58284 -81.1021 -8.73282 96 116 105
-3.52677 -79.8349 -8.56302 96 116 105
-3.52669 -79.8349 -8.52966 96 116 106
-3.5266 -79.8349 -8.49631 96 116 106
-3.52651 -79.8349 -8.46296 96 116 106
-3.52643 -79.8349 -8.42961 96 116 106
-3.52634 -79.8349 -8.39626 96 116 106
-3.52625 -79.8349 -8.3629 96 116 106
-3.52617 -79.8349 -8.32955 96 116 106
-3.52608 -79.8349 -8.2962 97 116 106
-3.52599 -79.8349 -8.26285 97 116 106
-3.52591 -79.8349 -8.22949 97 117 106
-3.52582 -79.8349 -8.19614 97 117 106
-3.76078 -85.1572 -8.70698 97 117 106
-3.76069 -85.1572 -8.6714 98 118 107
-3.7606 -85.1572 -8.63582 98 118 107
-3.76051 -85.1572 -8.60025 98 118 107
-3.76041 -85.1572 -8.56467 98 119 107
-3.76032 -85.1572 -8.5291 99 119 108
-3.76023 -85.1572 -8.49352 99 119 108
-3.76014 -85.1572 -8.45795 99 119 108
-3.76005 -85.1572 -8.42237 98 119 107
-3.75995 -85.1572 -8.38679 97 118 107
-3.75986 -85.1572 -8.35122 96 117 106
-3.75977 -85.1572 -8.31564 94 116 104
-3.5247 -79.8349 -7.76256 93 114 102
-3.52461 -79.8349 -7.72921 91 112 100
-3.69786 -83.7612 -8.07434 89 110 98
-3.69777 -83.7612 -8.03935 87 108 96
-3.75931 -85.1572 -8.13776 84 105 94
-3.75922 -85.1572 -8.10219 82 103 91
-3.75912 -85.1572 -8.06661 79 100 88
-3.75903 -85.1572 -8.03104 77 97 86
-3.524 -79.8349 -7.49574 74 94 83
-3.52392 -79.8349 -7.46239 71 91 80
-3.52383 -79.8349 -7.42904 69 88 77
-3.52374 -79.8349 -7.39569 66 85 74
-3.75857 -85.1572 -7.85316 63 82 71
-3.75848 -85.1572 -7.81758 61 80 68
-3.75838 -85.1572 -7.78201 58 77 66
-3.75829 -85.1572 -7.74643 56 74 63
-3.7582 -85.1572 -7.71085 54 72 61
-3.75811 -85.1572 -7.67528 52 70 59
-3.75802 -85.1572 -7.6397 51 68 57
-3.75792 -85.1572 -7.60413 50 67 55
-3.75783 -85.1572 -7.56855 49 65 54
-3.75774 -85.1572 -7.53298 48 64 53
-4.02605 -91.2398 -8.03293 48 64 53
-4.02595 -91.2398 -7.99481 48 64 53
-4.02585 -91.2398 -7.95669 48 64 53
-4.02575 -91.2398 -7.91858 48 64 53
-4.02565 -91.2398 -7.88046 49 65 53
-4.02555 -91.2398 -7.84234 49 65 53
-4.02546 -91.2398 -7.80423 49 65 53
-4.02536 -91.2398 -7.76611 49 65 54
-4.02526 -91.2398 -7.72799 50 66 54
-4.02516 -91.2398 -7.68988 50 66 54
-4.09824 -92.8987 -7.79088 50 66 55
-4.09814 -92.8987 -7.75207 50 67 55
-4.33447 -98.2583 -8.15826 51 67 55
-4.33436 -98.2583 -8.11721 51 67 56
-4.33425 -98.2583 -8.07616 52 68 56
-4.33415 -98.2583 -8.03511 52 68 56
-4.33404 -98.2583 -7.99406 52 69 57
-4.33393 -98.2583 -7.95301 53 69 57
-4.33383 -98.2583 -7.91196 53 70 58
-4.33372 -98.2583 -7.87092 54 70 58
-4.09724 -92.8987 -7.40278 54 71 59
-4.09714 -92.8987 -7.36397 55 71 60
-4.3334 -98.2583 -7.74777 56 72 61
-4.3333 -98.2583 -7.70672 57 74 62
-4.33319 -98.2583 -7.66567 58 75 63
-4.33308 -98.2583 -7.62462 60 76 65
-4.33298 -98.2583 -7.58357 61 78 66
-4.33287 -98.2583 -7.54252 62 80 68
-4.33276 -98.2583 -7.50147 64 81 69
-4.33266 -98.2583 -7.46043 65 83 71
-4.33255 -98.2583 -7.41938 67 85 73
-4.33244 -98.2583 -7.37833 69 86 74
-4.33234 -98.2583 -7.33728 70 88 76
-4.33223 -98.2583 -7.29623 72 91 78
-4.33212 -98.2583 -7.25518 74 93 80
-4.33202 -98.2583 -7.21413 76 95 82
-4.33191 -98.2583 -7.17308 78 97 84
-4.3318 -98.2583 -7.13203 80 99 86
-4.3317 -98.2583 -7.09098 82 101 88
-4.33159 -98.2583 -7.04994 84 103 90
-4.33149 -98.2583 -7.00889 85 105 92
-4.33138 -98.2583 -6.96784 87 106 93
-4.33127 -98.2583 -6.92679 88 108 95
-4.33117 -98.2583 -6.88574 89 109 96
-4.33106 -98.2583 -6.84469 90 111 97
-4.33095 -98.2583 -6.80364 91 112 98
-4.33085 -98.2583 -6.76259 91 112 99
-4.33074 -98.2583 -6.72154 91 112 99
-4.33063 -98.2583 -6.68049 91 112 99
-4.33053 -98.2583 -6.63945 91 112 99
-4.33042 -98.2583 -6.5984 90 112 99
-4.33031 -98.2583 -6.55735 90 112 98
-4.33021 -98.2583 -6.5163 89 111 98
-4.3301 -98.2583 -6.47525 89 111 97
-4.32999 -98.2583 -6.4342 88 110 97
-4.32989 -98.2583 -6.39315 87 109 96
-4.32978 -98.2583 -6.3521 87 109 95
-4.32967 -98.2583 -6.31105 86 108 94
-4.32957 -98.2583 -6.27001 85 107 93
-4.32946 -98.2583 -6.22896 83 106 92
-4.32936 -98.2583 -6.18791 82 105 91
-4.32925 -98.2583 -6.14686 80 103 90
-4.32914 -98.2583 -6.10581 78 101 88
-4.32904 -98.2583 -6.06476 77 99 86
-4.32893 -98.2583 -6.02371 75 98 85
-4.32882 -98.2583 -5.98266 74 96 84
-4.32872 -98.2583 -5.94161 74 96 84
-4.32861 -98.2583 -5.90056 74 95 83
-4.3285 -98.2583 -5.85952 74 95 83
-4.3284 -98.2583 -5.81847 74 95 83
-4.41272 -100.185 -5.72329 74 95 83
-4.41262 -100.185 -5.68143 74 95 83
-4.41251 -100.185 -5.63958 74 95 83
-4.4124 -100.185 -5.59772 73 95 83
-4.66383 -106.434 -13.1073 22 30 24
-4.66371 -106.434 -13.0628 22 31 25
-4.30486 -98.2469 -12.017 23 31 25
-4.30475 -98.2469 -11.9759 23 31 26
-4.30465 -98.2469 -11.9349 23 32 26
-4.30454 -98.2469 -11.8938 24 32 26
-4.30443 -98.2469 -11.8528 24 33 27
-4.30433 -98.2469 -11.8117 24 33 27
-4.30422 -98.2469 -11.7707 25 34 28
-4.30412 -98.2469 -11.7296 26 34 29
-4.06924 -92.888 -11.051 27 36 30
-4.06914 -92.888 -11.0122 28 37 32
-3.99638 -91.2293 -10.7774 30 39 34
-3.99628 -91.2293 -10.7393 33 42 36
-4.22217 -96.3932 -11.2264 41 51 45
-4.22207 -96.3932 -11.1861 44 55 49
-3.7294 -85.1473 -9.84549 48 58 52
-3.72931 -85.1473 -9.80991 51 62 56
-3.72922 -85.1473 -9.77434 54 66 59
-3.72913 -85.1473 -9.73876 58 70 63
-3.72903 -85.1473 -9.70319 61 74 67
-3.72894 -85.1473 -9.66761 65 79 71
-3.72885 -85.1473 -9.63203 68 83 74
-3.72876 -85.1473 -9.59646 72 87 78
-3.72866 -85.1473 -9.56088 75 90 82
-3.72857 -85.1473 -9.52531 78 94 85
-3.72848 -85.1473 -9.48973 81 98 88
-3.72839 -85.1473 -9.45416 84 101 91
-3.72829 -85.1473 -9.41858 86 104 94
-3.7282 -85.1473 -9.383 89 107 97
-3.72811 -85.1473 -9.34743 91 109 99
-3.72802 -85.1473 -9.31185 93 111 101
-3.72793 -85.1473 -9.27628 94 113 102
-3.72783 -85.1473 -9.2407 95 115 104
-3.66663 -83.7515 -9.05422 96 116 105
-3.66654 -83.7515 -9.01923 96 116 105
-3.49458 -79.8256 -8.5631 96 116 105
-3.4945 -79.8256 -8.52975 96 116 106
-3.49441 -79.8256 -8.4964 96 116 106
-3.49432 -79.8256 -8.46304 96 116 106
-3.49424 -79.8256 -8.42969 96 116 106
-3.49415 -79.8256 -8.39634 96 116 106
-3.49406 -79.8256 -8.36299 96 116 106
-3.49398 -79.8256 -8.32963 96 116 106
-3.49389 -79.8256 -8.29628 96 116 106
-3.49381 -79.8256 -8.26293 96 116 106
-3.49372 -79.8256 -8.22958 97 117 106
-3.49363 -79.8256 -8.19622 97 117 106
-3.72645 -85.1473 -8.70706 97 117 106
-3.72636 -85.1473 -8.67149 97 118 107
-3.72626 -85.1473 -8.63591 98 118 107
-3.72617 -85.1473 -8.60034 98 118 107
-3.72608 -85.1473 -8.56476 98 119 107
-3.72599 -85.1473 -8.52919 99 119 108
-3.72589 -85.1473 -8.49361 99 119 108
-3.7258 -85.1473 -8.45803 99 119 108
-3.72571 -85.1473 -8.42246 98 119 107
-3.72562 -85.1473 -8.38688 97 118 107
-3.72553 -85.1473 -8.35131 96 117 105
-3.72543 -85.1473 -8.31573 94 116 104
-3.49251 -79.8256 -7.76265 93 114 102
-3.49242 -79.8256 -7.72929 91 112 100
-3.54777 -81.0927 -7.8181 89 110 98
-3.54768 -81.0927 -7.78422 87 108 96
-3.72497 -85.1473 -8.13785 84 105 94
-3.72488 -85.1473 -8.10228 82 103 91
-3.72479 -85.1473 -8.0667 79 100 88
-3.72469 -85.1473 -8.03112 77 97 86
-3.49181 -79.8256 -7.49583 74 94 83
-3.49173 -79.8256 -7.46247 71 91 80
-3.49164 -79.8256 -7.42912 69 88 77
-3.49156 -79.8256 -7.39577 66 85 74
-3.72423 -85.1473 -7.85325 63 82 71
-3.72414 -85.1473 -7.81767 61 80 68
-3.72405 -85.1473 -7.78209 59 77 66
-3.72396 -85.1473 -7.74652 56 75 63
-3.72386 -85.1473 -7.71094 54 72 61
-3.72377 -85.1473 -7.67537 53 70 59
-3.72368 -85.1473 -7.63979 51 68 57
-3.72359 -85.1473 -7.60422 50 67 55
-3.72349 -85.1473 -7.56864 49 66 54
-3.7234 -85.1473 -7.53306 48 65 53
-3.98926 -91.2293 -8.03302 48 64 53
-3.98916 -91.2293 -7.99491 48 64 53
-3.98906 -91.2293 -7.95679 48 64 53
-3.98896 -91.2293 -7.91867 49 65 53
-3.98887 -91.2293 -7.88056 49 65 53
-3.98877 -91.2293 -7.84244 49 65 53
-3.98867 -91.2293 -7.80432 49 65 54
-3.98857 -91.2293 -7.7662 50 66 54
-3.98847 -91.2293 -7.72809 50 66 54
-3.98837 -91.2293 -7.68997 50 66 54
-4.21402 -96.3932 -8.08498 50 67 55
-4.21392 -96.3932 -8.0447 51 67 55
-4.29485 -98.2469 -8.15836 51 67 55
-4.29474 -98.2469 -8.11731 51 68 56
-4.29464 -98.2469 -8.07626 52 68 56
-4.29453 -98.2469 -8.03521 52 68 56
-4.29442 -98.2469 -7.99416 52 69 57
-4.29432 -98.2469 -7.95312 53 69 57
-4.29421 -98.2469 -7.91207 53 70 58
-4.2941 -98.2469 -7.87102 54 70 58
-4.21298 -96.3932 -7.68223 54 71 59
-4.21287 -96.3932 -7.64196 55 72 60
-4.29378 -98.2469 -7.74787 56 72 61
-4.29368 -98.2469 -7.70682 57 74 62
-4.29357 -98.2469 -7.66577 58 75 63
-4.29346 -98.2469 -7.62472 60 77 65
-4.29336 -98.2469 -7.58367 61 78 66
-4.29325 -98.2469 -7.54263 62 80 68
-4.29315 -98.2469 -7.50158 64 81 69
-4.29304 -98.2469 -7.46053 65 83 71
-4.29293 -98.2469 -7.41948 67 85 73
-4.29283 -98.2469 -7.37843 69 86 75
-4.29272 -98.2469 -7.33738 71 89 76
-4.29261 -98.2469 -7.29633 72 91 78
-4.29251 -98.2469 -7.25528 74 93 80
-4.2924 -98.2469 -7.21423 76 95 82
-4.29229 -98.2469 -7.17318 78 97 84
-4.29219 -98.2469 -7.13214 80 99 86
-4.29208 -98.2469 -7.09109 82 101 88
-4.29197 -98.2469 -7.05004 84 103 90
-4.29187 -98.2469 -7.00899 85 105 92
-4.29176 -98.2469 -6.96794 87 106 93
-4.29165 -98.2469 -6.92689 88 108 95
-4.29155 -98.2469 -6.88584 89 109 96
-4.29144 -98.2469 -6.84479 90 111 97
-4.29133 -98.2469 -6.80374 91 112 98
-4.29123 -98.2469 -6.7627 91 112 99
-4.29112 -98.2469 -6.72165 91 112 99
-4.29102 -98.2469 -6.6806 91 112 99
-4.29091 -98.2469 -6.63955 91 112 99
-4.2908 -98.2469 -6.5985 90 112 99
-4.2907 -98.2469 -6.55745 90 112 98
-4.29059 -98.2469 -6.5164 89 111 98
-4.29048 -98.2469 -6.47535 89 111 97
-4.29038 -98.2469 -6.4343 88 110 97
-4.29027 -98.2469 -6.39325 87 109 96
-4.29016 -98.2469 -6.35221 87 109 95
-4.29006 -98.2469 -6.31116 86 108 94
-4.28995 -98.2469 -6.27011 85 107 93
-4.28984 -98.2469 -6.22906 83 106 92
-4.28974 -98.2469 -6.18801 82 104 91
-4.28963 -98.2469 -6.14696 80 103 90
-4.28952 -98.2469 -6.10591 78 101 88
-4.28942 -98.2469 -6.06486 77 99 86
-4.28931 -98.2469 -6.02381 75 97 85
-4.2892 -98.2469 -5.98276 74 96 84
-4.2891 -98.2469 -5.94172 74 96 84
-4.28899 -98.2469 -5.90067 74 95 83
-4.28889 -98.2469 -5.85962 74 95 83
-4.28878 -98.2469 -5.81857 74 95 83
-4.55079 -104.262 -5.957 74 95 84
-4.55068 -104.262 -5.91343 74 95 84
-4.55057 -104.262 -5.86987 74 95 83
-4.55045 -104.262 -5.82631 74 95 83
-4.62091 -106.422 -13.1074 22 30 25
-4.62079 -106.422 -13.063 23 31 25
-4.26524 -98.2355 -12.0171 23 31 25
-4.26514 -98.2355 -11.976 23 32 26
-4.26503 -98.2355 -11.935 23 32 26
-4.26492 -98.2355 -11.8939 24 32 27
-4.26482 -98.2355 -11.8529 24 33 27
-4.26471 -98.2355 -11.8118 24 33 28
-4.18414 -96.382 -11.5487 25 34 28
-4.18403 -96.382 -11.5084 26 35 29
-3.95979 -91.2187 -10.8538 27 36 30
-3.95969 -91.2187 -10.8157 29 37 32
-3.95959 -91.2187 -10.7775 31 40 34
-3.95949 -91.2187 -10.7394 33 42 37
-4.26396 -98.2355 -11.5245 36 45 39
-4.26386 -98.2355 -11.4834 38 48 42
-4.26375 -98.2355 -11.4424 41 51 45
-4.26365 -98.2355 -11.4013 44 55 49
-3.69507 -85.1375 -9.84558 48 59 52
-3.69497 -85.1375 -9.81 51 62 56
-3.69488 -85.1375 -9.77443 54 66 59
-3.69479 -85.1375 -9.73885 58 70 63
-3.6947 -85.1375 -9.70327 61 75 67
-3.69461 -85.1375 -9.6677 65 79 71
-3.69451 -85.1375 -9.63212 68 83 75
-3.69442 -85.1375 -9.59655 72 87 78
-3.69433 -85.1375 -9.56097 75 90 82
-3.69424 -85.1375 -9.5254 78 94 85
-3.63358 -83.7418 -9.33425 81 98 88
-3.63349 -83.7418 -9.29926 84 101 91
-3.69396 -85.1375 -9.41867 86 104 94
-3.69387 -85.1375 -9.38309 89 107 97
-3.69377 -85.1375 -9.34752 91 109 99
-3.69368 -85.1375 -9.31194 93 111 101
-3.69359 -85.1375 -9.27637 94 113 102
-3.6935 -85.1375 -9.24079 95 115 104
-3.69341 -85.1375 -9.20521 96 116 105
-3.69331 -85.1375 -9.16964 96 116 105
-3.51735 -81.0833 -8.69911 96 116 105
-3.51727 -81.0833 -8.66523 96 116 105
-3.46222 -79.8164 -8.49648 96 116 106
-3.46213 -79.8164 -8.46313 96 116 106
-3.517 -81.0833 -8.56358 96 116 106
-3.51691 -81.0833 -8.5297 96 116 106
-3.51683 -81.0833 -8.49582 96 116 106
-3.51674 -81.0833 -8.46193 96 116 106
-3.4617 -79.8164 -8.29636 96 116 106
-3.46162 -79.8164 -8.26301 96 116 106
-3.46153 -79.8164 -8.22966 97 117 106
-3.46144 -79.8164 -8.19631 97 117 106
-3.69211 -85.1375 -8.70715 97 117 106
-3.69202 -85.1375 -8.67158 97 118 106
-3.69193 -85.1375 -8.636 98 118 107
-3.69184 -85.1375 -8.60043 98 118 107
-3.69174 -85.1375 -8.56485 98 119 107
-3.69165 -85.1375 -8.52927 99 119 107
-3.63104 -83.7418 -8.35446 99 119 108
-3.63095 -83.7418 -8.31946 99 119 108
-3.69137 -85.1375 -8.42255 98 119 107
-3.69128 -85.1375 -8.38697 97 118 106
-3.69119 -85.1375 -8.3514 96 117 105
-3.6911 -85.1375 -8.31582 94 116 104
-3.46032 -79.8164 -7.76273 93 114 102
-3.46023 -79.8164 -7.72938 91 112 100
-3.46014 -79.8164 -7.69602 89 110 98
-3.46006 -79.8164 -7.66267 87 108 96
-3.69064 -85.1375 -8.13794 84 105 93
-3.69054 -85.1375 -8.10236 82 103 91
-3.69045 -85.1375 -8.06679 79 100 88
-3.69036 -85.1375 -8.03121 77 97 86
-3.45963 -79.8164 -7.49591 74 94 83
-3.45954 -79.8164 -7.46256 71 91 80
-3.45945 -79.8164 -7.42921 69 88 77
-3.45937 -79.8164 -7.39585 66 85 74
-3.6899 -85.1375 -7.85333 63 82 71
-3.68981 -85.1375 -7.81776 61 80 68
-3.68971 -85.1375 -7.78218 59 77 66
-3.68962 -85.1375 -7.74661 56 75 63
-3.68953 -85.1375 -7.71103 54 72 61
-3.68944 -85.1375 -7.67546 53 70 59
-3.68934 -85.1375 -7.63988 51 69 57
-3.68925 -85.1375 -7.6043 50 67 56
-3.68916 -85.1375 -7.56873 49 66 54
-3.68907 -85.1375 -7.53315 48 65 53
-3.88313 -89.6184 -7.89219 48 64 53
-3.88303 -89.6184 -7.85474 48 64 53
-3.95228 -91.2187 -7.95688 49 65 53
-3.95218 -91.2187 -7.91877 49 65 53
-3.95208 -91.2187 -7.88065 49 65 53
-3.95198 -91.2187 -7.84253 49 65 53
-3.95188 -91.2187 -7.80442 49 65 54
-3.95178 -91.2187 -7.7663 50 66 54
-3.95168 -91.2187 -7.72818 50 66 54
-3.95158 -91.2187 -7.69007 50 66 55
-4.17515 -96.382 -8.08508 50 67 55
-4.17505 -96.382 -8.0448 51 67 55
-4.25523 -98.2355 -8.15846 51 67 55
-4.25512 -98.2355 -8.11741 51 68 56
-4.25502 -98.2355 -8.07636 52 68 56
-4.25491 -98.2355 -8.03532 52 69 57
-4.25481 -98.2355 -7.99427 53 69 57
-4.2547 -98.2355 -7.95322 53 69 57
-4.25459 -98.2355 -7.91217 53 70 58
-4.25449 -98.2355 -7.87112 54 70 59
-4.17411 -96.382 -7.68233 54 71 59
-4.174 -96.382 -7.64206 55 72 60
-4.25417 -98.2355 -7.74797 56 73 61
-4.25406 -98.2355 -7.70692 57 74 62
-4.25395 -98.2355 -7.66587 59 75 64
-4.25385 -98.2355 -7.62483 60 77 65
-4.25374 -98.2355 -7.58378 61 78 66
-4.25363 -98.2355 -7.54273 62 80 68
-4.25353 -98.2355 -7.50168 64 81 69
-4.25342 -98.2355 -7.46063 65 83 71
-4.25331 -98.2355 -7.41958 67 85 73
-4.25321 -98.2355 -7.37853 69 87 75
-4.2531 -98.2355 -7.33748 71 89 77
-4.25299 -98.2355 -7.29643 72 91 79
-4.25289 -98.2355 -7.25538 74 93 81
-4.25278 -98.2355 -7.21434 76 95 83
-4.25268 -98.2355 -7.17329 78 97 85
-4.25257 -98.2355 -7.13224 80 99 86
-4.25246 -98.2355 -7.09119 82 101 88
-4.25236 -98.2355 -7.05014 84 103 90
-4.25225 -98.2355 -7.00909 85 105 92
-4.25214 -98.2355 -6.96804 87 106 93
-4.25204 -98.2355 -6.92699 88 108 95
-4.25193 -98.2355 -6.88594 89 109 96
-4.25182 -98.2355 -6.8449 90 111 97
-4.25172 -98.2355 -6.80385 91 112 98
-4.25161 -98.2355 -6.7628 91 112 99
-4.2515 -98.2355 -6.72175 91 112 99
-4.2514 -98.2355 -6.6807 91 112 99
-4.25129 -98.2355 -6.63965 91 112 99
-4.25118 -98.2355 -6.5986 90 112 99
-4.25108 -98.2355 -6.55755 90 112 98
-4.25097 -98.2355 -6.5165 89 111 98
-4.25086 -98.2355 -6.47545 89 111 97
-4.25076 -98.2355 -6.43441 88 110 97
-4.25065 -98.2355 -6.39336 87 109 96
-4.25055 -98.2355 -6.35231 87 109 95
-4.25044 -98.2355 -6.31126 86 108 94
-4.25033 -98.2355 -6.27021 84 107 93
-4.25023 -98.2355 -6.22916 83 106 92
-4.25012 -98.2355 -6.18811 82 104 91
-4.25001 -98.2355 -6.14706 80 103 90
-4.24991 -98.2355 -6.10601 78 101 88
-4.2498 -98.2355 -6.06496 76 99 86
-4.24969 -98.2355 -6.02392 75 97 85
-4.24959 -98.2355 -5.98287 74 96 84
-4.24948 -98.2355 -5.94182 74 96 84
-4.24937 -98.2355 -5.90077 74 95 83
-4.24927 -98.2355 -5.85972 74 95 83
-4.24916 -98.2355 -5.81867 74 95 83
-4.57799 -106.41 -13.1075 22 30 25
-4.57788 -106.41 -13.0631 23 31 25
-4.22562 -98.2242 -12.0172 23 31 25
-4.22552 -98.2242 -11.9761 23 32 26
-4.22541 -98.2242 -11.9351 24 32 26
-4.22531 -98.2242 -11.894 24 33 27
-4.2252 -98.2242 -11.853 24 33 27
-4.22509 -98.2242 -11.8119 25 33 28
-3.99453 -92.8665 -11.1288 25 34 28
-3.99443 -92.8665 -11.09 26 35 29
-3.923 -91.2082 -10.8539 27 36 31
-3.9229 -91.2082 -10.8157 29 38 32
-3.92281 -91.2082 -10.7776 31 40 34
-3.92271 -91.2082 -10.7395 33 42 37
-4.22435 -98.2242 -11.5246 36 45 40
-4.22424 -98.2242 -11.4835 38 48 42
-4.22413 -98.2242 -11.4425 41 52 46
-4.22403 -98.2242 -11.4014 45 55 49
-3.66073 -85.1276 -9.84567 48 59 52
-3.66064 -85.1276 -9.81009 51 63 56
-3.66055 -85.1276 -9.77451 55 67 60
-3.66045 -85.1276 -9.73894 58 71 63
-3.66036 -85.1276 -9.70336 62 75 67
-3.66027 -85.1276 -9.66779 65 79 71
-3.66018 -85.1276 -9.63221 69 83 75
-3.66009 -85.1276 -9.59664 72 87 78
-3.65999 -85.1276 -9.56106 75 91 82
-3.6599 -85.1276 -9.52548 78 94 85
-3.48553 -81.0739 -9.03801 81 98 88
-3.48544 -81.0739 -9.00413 84 101 91
-3.65962 -85.1276 -9.41876 86 104 94
-3.65953 -85.1276 -9.38318 89 107 96
-3.65944 -85.1276 -9.34761 91 109 99
-3.65935 -85.1276 -9.31203 93 111 101
-3.65925 -85.1276 -9.27645 94 113 102
-3.65916 -85.1276 -9.24088 95 115 104
-3.65907 -85.1276 -9.2053 95 115 104
-3.65898 -85.1276 -9.16973 96 116 105
-3.5989 -83.7321 -8.98441 96 116 105
-3.59881 -83.7321 -8.94942 96 116 105
-3.43003 -79.8071 -8.49656 96 116 105
-3.42995 -79.8071 -8.46321 96 116 105
-3.59854 -83.7321 -8.84444 96 116 105
-3.59845 -83.7321 -8.80945 96 116 105
-3.59836 -83.7321 -8.77446 96 116 105
-3.59827 -83.7321 -8.73946 96 116 105
-3.42951 -79.8071 -8.29645 96 116 105
-3.42943 -79.8071 -8.2631 96 116 106
-3.42934 -79.8071 -8.22974 96 117 106
-3.42925 -79.8071 -8.19639 97 117 106
-3.65778 -85.1276 -8.70724 97 117 106
-3.65769 -85.1276 -8.67167 97 118 106
-3.65759 -85.1276 -8.63609 98 118 107
-3.6575 -85.1276 -8.60051 98 118 107
-3.65741 -85.1276 -8.56494 98 119 107
-3.65732 -85.1276 -8.52936 99 119 107
-3.48307 -81.0739 -8.08932 99 119 107
-3.48298 -81.0739 -8.05544 99 119 107
-3.65704 -85.1276 -8.42264 98 119 107
-3.65695 -85.1276 -8.38706 97 118 106
-3.65685 -85.1276 -8.35148 96 117 105
-3.65676 -85.1276 -8.31591 94 115 104
-3.42813 -79.8071 -7.76281 93 114 102
-3.42804 -79.8071 -7.72946 91 112 100
-3.42795 -79.8071 -7.69611 89 110 98
-3.42787 -79.8071 -7.66275 86 107 96
-3.6563 -85.1276 -8.13803 84 105 93
-3.65621 -85.1276 -8.10245 82 102 91
-3.65612 -85.1276 -8.06688 79 100 88
-3.65602 -85.1276 -8.0313 77 97 86
-3.42744 -79.8071 -7.49599 74 94 83
-3.42735 -79.8071 -7.46264 71 91 80
-3.42726 -79.8071 -7.42929 69 88 77
-3.42718 -79.8071 -7.39594 66 85 74
-3.65556 -85.1276 -7.85342 64 83 71
-3.65547 -85.1276 -7.81785 61 80 69
-3.65538 -85.1276 -7.78227 59 77 66
-3.65529 -85.1276 -7.7467 57 75 64
-3.65519 -85.1276 -7.71112 55 73 61
-3.6551 -85.1276 -7.67554 53 71 59
-3.65501 -85.1276 -7.63997 51 69 57
-3.65492 -85.1276 -7.60439 50 67 56
-3.65482 -85.1276 -7.56882 49 66 54
-3.65473 -85.1276 -7.53324 49 65 54
-3.71658 -86.5704 -7.62474 48 65 53
-3.71649 -86.5704 -7.58857 49 65 53
-3.91549 -91.2082 -7.95698 49 65 53
-3.91539 -91.2082 -7.91886 49 65 53
-3.91529 -91.2082 -7.88075 49 65 53
-3.91519 -91.2082 -7.84263 49 65 54
-3.91509 -91.2082 -7.80451 50 66 54
-3.91499 -91.2082 -7.76639 50 66 54
-3.91489 -91.2082 -7.72828 50 66 54
-3.91479 -91.2082 -7.69016 50 67 55
-3.98587 -92.8665 -7.79117 51 67 55
-3.98577 -92.8665 -7.75236 51 67 55
-4.21561 -98.2242 -8.15856 51 68 56
-4.21551 -98.2242 -8.11752 52 68 56
-4.2154 -98.2242 -8.07647 52 68 56
-4.21529 -98.2242 -8.03542 52 69 57
-4.21519 -98.2242 -7.99437 53 69 57
-4.21508 -98.2242 -7.95332 53 70 58
-4.21497 -98.2242 -7.91227 54 70 58
-4.21487 -98.2242 -7.87122 54 70 59
-3.98487 -92.8665 -7.40307 55 71 59
-3.98476 -92.8665 -7.36426 55 72 60
-4.21455 -98.2242 -7.74807 56 73 61
-4.21444 -98.2242 -7.70703 57 74 62
-4.21434 -98.2242 -7.66598 59 75 64
-4.21423 -98.2242 -7.62493 60 77 65
-4.21412 -98.2242 -7.58388 61 78 66
-4.21402 -98.2242 -7.54283 63 80 68
-4.21391 -98.2242 -7.50178 64 81 69
-4.2138 -98.2242 -7.46073 65 83 71
-4.2137 -98.2242 -7.41968 67 85 73
-4.21359 -98.2242 -7.37863 69 87 75
-4.21348 -98.2242 -7.33759 71 89 77
-4.21338 -98.2242 -7.29654 73 91 79
-4.21327 -98.2242 -7.25549 74 93 81
-4.21316 -98.2242 -7.21444 76 95 83
-4.21306 -98.2242 -7.17339 78 97 85
-4.21295 -98.2242 -7.13234 80 99 87
-4.21284 -98.2242 -7.09129 82 101 88
-4.21274 -98.2242 -7.05024 84 103 90
-4.21263 -98.2242 -7.00919 85 105 92
-4.21252 -98.2242 -6.96814 87 106 94
-4.21242 -98.2242 -6.9271 88 108 95
-4.21231 -98.2242 -6.88605 89 109 96
-4.21221 -98.2242 -6.845 90 111 97
-4.2121 -98.2242 -6.80395 91 112 98
-4.21199 -98.2242 -6.7629 91 112 99
-4.21189 -98.2242 -6.72185 91 112 99
-4.21178 -98.2242 -6.6808 91 112 99
-4.21167 -98.2242 -6.63975 91 112 99
-4.21157 -98.2242 -6.5987 90 112 99
-4.21146 -98.2242 -6.55765 90 111 98
-4.21135 -98.2242 -6.51661 89 111 98
-4.21125 -98.2242 -6.47556 89 111 97
-4.21114 -98.2242 -6.43451 88 110 97
-4.21103 -98.2242 -6.39346 87 109 96
-4.21093 -98.2242 -6.35241 87 109 95
-4.21082 -98.2242 -6.31136 85 108 94
-4.21071 -98.2242 -6.27031 84 107 93
-4.21061 -98.2242 -6.22926 83 106 92
-4.2105 -98.2242 -6.18821 82 104 91
-4.21039 -98.2242 -6.14717 80 103 90
-4.21029 -98.2242 -6.10612 78 101 88
-4.21018 -98.2242 -6.06507 76 99 86
-4.21008 -98.2242 -6.02402 75 97 85
-4.20997 -98.2242 -5.98297 74 96 84
-4.20986 -98.2242 -5.94192 74 96 84
-4.20976 -98.2242 -5.90087 74 95 83
-4.20965 -98.2242 -5.85982 74 95 83
-4.20954 -98.2242 -5.81877 74 95 83
-4.44252 -104.226 -12.8401 22 31 25
-4.44241 -104.226 -12.7966 23 31 25
-4.18601 -98.2128 -12.0173 23 31 26
-4.1859 -98.2128 -11.9762 23 32 26
-4.18579 -98.2128 -11.9352 24 32 26
-4.18569 -98.2128 -11.8941 24 33 27
-4.18558 -98.2128 -11.8531 24 33 27
-4.18547 -98.2128 -11.812 25 34 28
-3.88641 -91.1976 -10.9302 25 34 29
-3.88631 -91.1976 -10.8921 26 35 30
-3.88622 -91.1976 -10.854 27 36 31
-3.88612 -91.1976 -10.8158 29 38 32
-3.88602 -91.1976 -10.7777 31 40 35
-3.88592 -91.1976 -10.7396 33 43 37
-4.18473 -98.2128 -11.5247 36 45 40
-4.18462 -98.2128 -11.4836 39 49 43
-4.10556 -96.3597 -11.2267 42 52 46
-4.10546 -96.3597 -11.1864 45 55 49
-3.6264 -85.1177 -9.84575 48 59 53
-3.6263 -85.1177 -9.81018 51 63 56
-3.62621 -85.1177 -9.7746 55 67 60
-3.62612 -85.1177 -9.73903 58 71 63
-3.62603 -85.1177 -9.70345 62 75 67
-3.62593 -85.1177 -9.66788 65 79 71
-3.62584 -85.1177 -9.6323 69 83 75
-3.62575 -85.1177 -9.59672 72 87 78
-3.56622 -83.7224 -9.40441 75 91 82
-3.56613 -83.7224 -9.36942 78 94 85
-3.39888 -79.7979 -8.89687 81 98 88
-3.39879 -79.7979 -8.86352 84 101 91
-3.56586 -83.7224 -9.26444 86 104 94
-3.56577 -83.7224 -9.22945 89 107 96
-3.6251 -85.1177 -9.34769 91 109 99
-3.62501 -85.1177 -9.31212 92 111 101
-3.62492 -85.1177 -9.27654 94 113 102
-3.62483 -85.1177 -9.24097 95 115 103
-3.62473 -85.1177 -9.20539 95 115 104
-3.62464 -85.1177 -9.16981 96 116 105
-3.62455 -85.1177 -9.13424 96 116 105
-3.62446 -85.1177 -9.09866 96 116 105
-3.45178 -81.0645 -8.63151 96 116 105
-3.45169 -81.0645 -8.59763 96 116 105
-3.62418 -85.1177 -8.99194 96 116 105
-3.62409 -85.1177 -8.95636 96 116 105
-3.624 -85.1177 -8.92078 96 116 105
-3.6239 -85.1177 -8.88521 96 116 105
-3.45125 -81.0645 -8.42822 96 116 105
-3.45116 -81.0645 -8.39434 96 116 105
-3.39715 -79.7979 -8.22983 96 117 106
-3.39706 -79.7979 -8.19647 97 117 106
-3.62344 -85.1177 -8.70733 97 117 106
-3.62335 -85.1177 -8.67175 97 117 106
-3.62326 -85.1177 -8.63618 98 118 106
-3.62317 -85.1177 -8.6006 98 118 107
-3.62307 -85.1177 -8.56503 98 119 107
-3.62298 -85.1177 -8.52945 99 119 107
-3.39646 -79.7979 -7.96301 99 119 107
-3.39637 -79.7979 -7.92966 99 119 107
-3.56331 -83.7224 -8.28465 98 119 107
-3.56322 -83.7224 -8.24965 97 118 106
-3.56313 -83.7224 -8.21466 96 117 105
-3.56304 -83.7224 -8.17967 94 115 104
-3.39594 -79.7979 -7.76289 92 114 102
-3.39585 -79.7979 -7.72954 91 112 100
-3.39577 -79.7979 -7.69619 89 110 98
-3.39568 -79.7979 -7.66284 86 107 96
-3.62197 -85.1177 -8.13812 84 105 93
-3.62187 -85.1177 -8.10254 82 102 91
-3.62178 -85.1177 -8.06697 79 100 88
-3.62169 -85.1177 -8.03139 77 97 86
-3.39525 -79.7979 -7.49608 74 94 83
-3.39516 -79.7979 -7.46272 71 91 80
-3.39507 -79.7979 -7.42937 69 88 77
-3.39499 -79.7979 -7.39602 66 85 74
-3.62123 -85.1177 -7.85351 64 83 71
-3.62113 -85.1177 -7.81794 61 80 69
-3.62104 -85.1177 -7.78236 59 77 66
-3.62095 -85.1177 -7.74678 57 75 64
-3.62086 -85.1177 -7.71121 55 73 61
-3.62077 -85.1177 -7.67563 53 71 59
-3.62067 -85.1177 -7.64006 51 69 58
-3.62058 -85.1177 -7.60448 50 67 56
-3.62049 -85.1177 -7.56891 49 66 55
-3.6204 -85.1177 -7.53333 49 65 54
-3.68166 -86.5604 -7.62483 49 65 53
-3.68157 -86.5604 -7.58866 49 65 53
-3.8787 -91.1976 -7.95707 49 65 53
-3.8786 -91.1976 -7.91896 49 65 53
-3.8785 -91.1976 -7.88084 49 65 54
-3.8784 -91.1976 -7.84272 50 66 54
-3.8783 -91.1976 -7.80461 50 66 54
-3.8782 -91.1976 -7.76649 50 66 54
-3.87811 -91.1976 -7.72837 50 66 55
-3.87801 -91.1976 -7.69026 50 67 55
-3.87791 -91.1976 -7.65214 51 67 55
-3.87781 -91.1976 -7.61402 51 67 55
-4.0972 -96.3597 -8.00473 51 68 56
-4.0971 -96.3597 -7.96446 52 68 56
-4.17578 -98.2128 -8.07657 52 68 56
-4.17568 -98.2128 -8.03552 52 69 57
-4.17557 -98.2128 -7.99447 53 69 57
-4.17546 -98.2128 -7.95342 53 70 58
-4.09658 -96.3597 -7.76308 54 70 58
-4.09647 -96.3597 -7.72281 54 71 59
-3.87692 -91.1976 -7.27097 55 71 59
-3.87682 -91.1976 -7.23285 55 72 60
-4.17493 -98.2128 -7.74818 56 73 61
-4.17482 -98.2128 -7.70713 57 74 62
-4.17472 -98.2128 -7.66608 59 75 64
-4.17461 -98.2128 -7.62503 60 77 65
-4.1745 -98.2128 -7.58398 61 78 67
-4.1744 -98.2128 -7.54293 63 80 68
-4.17429 -98.2128 -7.50188 64 81 70
-4.17418 -98.2128 -7.46083 66 83 71
-4.17408 -98.2128 -7.41979 67 85 73
-4.17397 -98.2128 -7.37874 69 87 75
-4.17387 -98.2128 -7.33769 71 89 77
-4.17376 -98.2128 -7.29664 73 91 79
-4.17365 -98.2128 -7.25559 74 93 81
-4.17355 -98.2128 -7.21454 76 95 83
-4.17344 -98.2128 -7.17349 78 97 85
-4.17333 -98.2128 -7.13244 80 99 87
-4.17323 -98.2128 -7.09139 82 101 88
-4.17312 -98.2128 -7.05034 84 103 90
-4.17301 -98.2128 -7.0093 85 105 92
-4.17291 -98.2128 -6.96825 87 106 94
-4.1728 -98.2128 -6.9272 88 108 95
-4.17269 -98.2128 -6.88615 89 110 96
-4.17259 -98.2128 -6.8451 90 111 97
-4.17248 -98.2128 -6.80405 91 112 98
-4.17237 -98.2128 -6.763 91 112 99
-4.17227 -98.2128 -6.72195 91 112 99
-4.17216 -98.2128 -6.6809 91 112 99
-4.17205 -98.2128 -6.63985 91 112 99
-4.17195 -98.2128 -6.59881 90 112 99
-4.17184 -98.2128 -6.55776 90 111 98
-4.17174 -98.2128 -6.51671 89 111 98
-4.17163 -98.2128 -6.47566 89 111 97
-4.17152 -98.2128 -6.43461 88 110 97
-4.17142 -98.2128 -6.39356 87 109 96
-4.17131 -98.2128 -6.35251 86 109 95
-4.1712 -98.2128 -6.31146 85 108 94
-4.1711 -98.2128 -6.27041 84 107 93
-4.17099 -98.2128 -6.22937 83 106 92
-4.17088 -98.2128 -6.18832 82 104 91
-4.17078 -98.2128 -6.14727 80 103 89
-4.17067 -98.2128 -6.10622 78 101 88
-4.17056 -98.2128 -6.06517 76 99 86
-4.17046 -98.2128 -6.02412 75 97 85
-4.17035 -98.2128 -5.98307 74 96 84
-4.17024 -98.2128 -5.94202 74 96 84
-4.17014 -98.2128 -5.90097 74 95 83
-4.17003 -98.2128 -5.85992 74 95 83
-4.16992 -98.2128 -5.81888 74 95 83
-4.22791 -100.127 -12.3367 23 31 25
-4.2278 -100.127 -12.2949 23 31 25
-4.14639 -98.2014 -12.0174 23 32 26
-4.14628 -98.2014 -11.9763 24 32 26
-4.14618 -98.2014 -11.9353 24 33 26
-4.14607 -98.2014 -11.8942 24 33 27
-4.14596 -98.2014 -11.8532 24 33 27
-4.14586 -98.2014 -11.8121 25 34 28
-3.84962 -91.187 -10.9303 25 34 29
-3.84953 -91.187 -10.8922 26 35 30
-3.84943 -91.187 -10.8541 27 36 31
-3.84933 -91.187 -10.8159 29 38 33
-3.84923 -91.187 -10.7778 31 40 35
-3.84913 -91.187 -10.7397 33 43 37
-4.14511 -98.2014 -11.5248 36 46 40
-4.145 -98.2014 -11.4837 39 49 43
-3.91881 -92.845 -10.8185 42 52 46
-3.91871 -92.845 -10.7797 45 56 49
-3.59206 -85.1079 -9.84584 48 59 53
-3.59197 -85.1079 -9.81027 51 63 56
-3.59188 -85.1079 -9.77469 55 67 60
-3.59178 -85.1079 -9.73912 58 71 64
-3.59169 -85.1079 -9.70354 62 75 67
-3.5916 -85.1079 -9.66796 65 79 71
-3.59151 -85.1079 -9.63239 69 83 75
-3.59141 -85.1079 -9.59681 72 87 78
-3.42031 -81.0551 -9.10594 75 91 82
-3.42022 -81.0551 -9.07206 78 94 85
-3.36669 -79.7886 -8.89696 81 98 88
-3.3666 -79.7886 -8.8636 84 101 91
-3.41995 -81.0551 -8.97041 86 104 94
-3.41987 -81.0551 -8.93653 88 107 96
-3.59077 -85.1079 -9.34778 91 109 99
-3.59068 -85.1079 -9.31221 92 111 101
-3.59058 -85.1079 -9.27663 94 113 102
-3.59049 -85.1079 -9.24106 95 115 103
-3.5904 -85.1079 -9.20548 95 115 104
-3.59031 -85.1079 -9.1699 95 116 105
-3.59021 -85.1079 -9.13433 96 116 105
-3.59012 -85.1079 -9.09875 96 116 105
-3.53118 -83.7127 -8.9146 96 116 105
-3.53109 -83.7127 -8.87961 96 116 105
-3.58984 -85.1079 -8.99202 96 116 105
-3.58975 -85.1079 -8.95645 96 116 105
-3.58966 -85.1079 -8.92087 96 116 105
-3.58957 -85.1079 -8.8853 96 116 105
-3.53063 -83.7127 -8.70464 96 116 105
-3.53054 -83.7127 -8.66965 96 116 105
-3.36496 -79.7886 -8.22991 96 117 105
-3.36487 -79.7886 -8.19656 97 117 106
-3.58911 -85.1079 -8.70742 97 117 106
-3.58901 -85.1079 -8.67184 97 117 106
-3.58892 -85.1079 -8.63627 97 118 106
-3.58883 -85.1079 -8.60069 98 118 107
-3.58874 -85.1079 -8.56512 98 118 107
-3.58864 -85.1079 -8.52954 98 119 107
-3.36427 -79.7886 -7.96309 99 119 107
-3.36418 -79.7886 -7.92974 98 119 107
-3.41749 -81.0551 -8.02173 98 119 107
-3.41741 -81.0551 -7.98784 97 118 106
-3.41732 -81.0551 -7.95396 96 117 105
-3.41723 -81.0551 -7.92008 94 115 104
-3.36375 -79.7886 -7.76298 92 114 102
-3.36366 -79.7886 -7.72963 91 112 100
-3.36358 -79.7886 -7.69627 89 110 98
-3.36349 -79.7886 -7.66292 86 107 96
-3.58763 -85.1079 -8.13821 84 105 93
-3.58754 -85.1079 -8.10263 82 102 91
-3.58744 -85.1079 -8.06705 79 100 88
-3.58735 -85.1079 -8.03148 77 97 86
-3.36306 -79.7886 -7.49616 74 94 83
-3.36297 -79.7886 -7.46281 71 91 80
-3.36288 -79.7886 -7.42945 69 88 77
-3.3628 -79.7886 -7.3961 66 86 74
-3.58689 -85.1079 -7.8536 64 83 71
-3.5868 -85.1079 -7.81802 61 80 69
-3.58671 -85.1079 -7.78245 59 77 66
-3.58661 -85.1079 -7.74687 57 75 64
-3.58652 -85.1079 -7.7113 55 73 62
-3.58643 -85.1079 -7.67572 53 71 59
-3.58634 -85.1079 -7.64015 52 69 58
-3.58625 -85.1079 -7.60457 50 68 56
-3.58615 -85.1079 -7.56899 49 66 55
-3.58606 -85.1079 -7.53342 49 65 54
-3.7747 -89.5873 -7.89247 49 65 54
-3.77461 -89.5873 -7.85502 49 65 53
-3.84191 -91.187 -7.95717 49 65 53
-3.84181 -91.187 -7.91905 49 65 54
-3.84171 -91.187 -7.88093 50 66 54
-3.84161 -91.187 -7.84282 50 66 54
-3.84152 -91.187 -7.8047 50 66 54
-3.84142 -91.187 -7.76658 50 66 55
-3.84132 -91.187 -7.72847 50 67 55
-3.84122 -91.187 -7.69035 51 67 55
-3.84112 -91.187 -7.65223 51 67 55
-3.84102 -91.187 -7.61412 51 67 56
-3.91076 -92.845 -7.71375 51 68 56
-3.91066 -92.845 -7.67494 52 68 56
-4.13616 -98.2014 -8.07667 52 69 57
-4.13606 -98.2014 -8.03562 53 69 57
-4.13595 -98.2014 -7.99457 53 69 57
-4.13584 -98.2014 -7.95352 53 70 58
-3.91015 -92.845 -7.48089 54 70 58
-3.91005 -92.845 -7.44208 54 71 59
-3.84013 -91.187 -7.27106 55 71 60
-3.84003 -91.187 -7.23295 55 72 60
-4.13531 -98.2014 -7.74828 56 73 61
-4.13521 -98.2014 -7.70723 58 74 62
-4.1351 -98.2014 -7.66618 59 76 64
-4.13499 -98.2014 -7.62513 60 77 65
-4.13489 -98.2014 -7.58408 61 78 67
-4.13478 -98.2014 -7.54303 63 80 68
-4.13467 -98.2014 -7.50199 64 82 70
-4.13457 -98.2014 -7.46094 66 83 71
-4.13446 -98.2014 -7.41989 67 85 73
-4.13435 -98.2014 -7.37884 69 87 75
-4.13425 -98.2014 -7.33779 71 89 77
-4.13414 -98.2014 -7.29674 73 91 79
-4.13403 -98.2014 -7.25569 74 93 81
-4.13393 -98.2014 -7.21464 76 95 83
-4.13382 -98.2014 -7.17359 78 97 85
-4.13371 -98.2014 -7.13254 80 99 87
-4.13361 -98.2014 -7.0915 82 101 88
-4.1335 -98.2014 -7.05045 84 103 90
-4.1334 -98.2014 -7.0094 85 105 92
-4.13329 -98.2014 -6.96835 87 106 94
-4.13318 -98.2014 -6.9273 88 108 95
-4.13308 -98.2014 -6.88625 89 110 96
-4.13297 -98.2014 -6.8452 90 111 97
-4.13286 -98.2014 -6.80415 91 112 98
-4.13276 -98.2014 -6.7631 91 112 99
-4.13265 -98.2014 -6.72205 91 112 99
-4.13254 -98.2014 -6.68101 91 112 99
-4.13244 -98.2014 -6.63996 91 112 99
-4.13233 -98.2014 -6.59891 90 112 99
-4.13222 -98.2014 -6.55786 90 111 98
-4.13212 -98.2014 -6.51681 89 111 98
-4.13201 -98.2014 -6.47576 89 111 97
-4.1319 -98.2014 -6.43471 88 110 97
-4.1318 -98.2014 -6.39366 87 109 96
-4.13169 -98.2014 -6.35261 86 109 95
-4.13158 -98.2014 -6.31157 85 108 94
-4.13148 -98.2014 -6.27052 84 107 93
-4.13137 -98.2014 -6.22947 83 106 92
-4.13127 -98.2014 -6.18842 82 104 91
-4.13116 -98.2014 -6.14737 80 103 89
-4.13105 -98.2014 -6.10632 78 101 88
-4.13095 -98.2014 -6.06527 76 99 86
-4.13084 -98.2014 -6.02422 75 97 85
-4.13073 -98.2014 -5.98317 74 96 84
-4.13063 -98.2014 -5.94212 74 95 84
-4.13052 -98.2014 -5.90108 73 95 83
-4.13041 -98.2014 -5.86003 73 95 83
-4.13031 -98.2014 -5.81898 74 95 83
-4.18534 -100.127 4.06999 58 67 59
-4.18523 -100.127 4.11185 62 72 63
-4.10698 -98.19 -12.0996 23 31 25
-4.10688 -98.19 -12.0585 23 31 25
-4.10677 -98.19 -12.0175 23 32 26
-4.10666 -98.19 -11.9764 24 32 26
-4.10656 -98.19 -11.9354 24 33 27
-4.10645 -98.19 -11.8943 24 33 27
-4.02887 -96.3374 -11.6296 25 34 28
-4.02876 -96.3374 -11.5894 25 34 28
-3.88216 -92.8342 -11.1291 26 35 29
-3.88206 -92.8342 -11.0903 26 35 30
-3.81264 -91.1765 -10.8541 28 37 31
-3.81254 -91.1765 -10.816 29 38 33
-3.81244 -91.1765 -10.7779 31 40 35
-3.81234 -91.1765 -10.7398 34 43 37
-4.02803 -96.3374 -11.3074 36 46 40
-4.02793 -96.3374 -11.2672 39 49 43
-3.81205 -91.1765 -10.6254 42 52 46
-3.81195 -91.1765 -10.5873 45 56 49
-3.55772 -85.098 -9.84593 48 59 53
-3.55763 -85.098 -9.81036 51 63 56
-3.55754 -85.098 -9.77478 55 67 60
-3.55745 -85.098 -9.7392 58 71 64
-3.55736 -85.098 -9.70363 62 75 67
-3.55726 -85.098 -9.66805 65 79 71
-3.55717 -85.098 -9.63248 69 83 75
-3.55708 -85.098 -9.5969 72 87 78
-3.33467 -79.7794 -8.96374 75 91 82
-3.33459 -79.7794 -8.93039 78 94 85
-3.3345 -79.7794 -8.89704 81 98 88
-3.33441 -79.7794 -8.86369 84 101 91
-3.33433 -79.7794 -8.83033 86 104 94
-3.33424 -79.7794 -8.79698 88 107 96
-3.55643 -85.098 -9.34787 90 109 99
-3.55634 -85.098 -9.3123 92 111 101
-3.55625 -85.098 -9.27672 94 113 102
-3.55616 -85.098 -9.24114 95 115 103
-3.55606 -85.098 -9.20557 95 115 104
-3.55597 -85.098 -9.16999 95 116 105
-3.55588 -85.098 -9.13442 95 116 105
-3.55579 -85.098 -9.09884 96 116 105
-3.55569 -85.098 -9.06326 96 116 105
-3.5556 -85.098 -9.02769 96 116 105
-3.55551 -85.098 -8.99211 96 116 105
-3.55542 -85.098 -8.95654 96 116 105
-3.55532 -85.098 -8.92096 96 116 105
-3.55523 -85.098 -8.88539 96 116 105
-3.55514 -85.098 -8.84981 96 116 105
-3.55505 -85.098 -8.81423 96 116 105
-3.33277 -79.7794 -8.22999 96 117 105
-3.33268 -79.7794 -8.19664 96 117 105
-3.4965 -83.703 -8.56476 97 117 106
-3.49641 -83.703 -8.52977 97 117 106
-3.55459 -85.098 -8.63636 97 118 106
-3.55449 -85.098 -8.60078 98 118 107
-3.5544 -85.098 -8.5652 98 118 107
-3.55431 -85.098 -8.52963 98 119 107
-3.33208 -79.7794 -7.96317 99 119 107
-3.33199 -79.7794 -7.92982 98 119 107
-3.33191 -79.7794 -7.89647 98 119 107
-3.33182 -79.7794 -7.86312 97 118 106
-3.33173 -79.7794 -7.82977 96 117 105
-3.33165 -79.7794 -7.79641 94 115 103
-3.33156 -79.7794 -7.76306 92 114 102
-3.33147 -79.7794 -7.72971 91 112 100
-3.33139 -79.7794 -7.69636 89 110 98
-3.3313 -79.7794 -7.663 86 107 96
-3.55329 -85.098 -8.13829 84 105 93
-3.5532 -85.098 -8.10272 82 102 91
-3.55311 -85.098 -8.06714 79 100 88
-3.55302 -85.098 -8.03157 77 97 86
-3.33087 -79.7794 -7.49624 74 94 83
-3.33078 -79.7794 -7.46289 72 91 80
-3.33069 -79.7794 -7.42954 69 88 77
-3.33061 -79.7794 -7.39619 66 86 74
-3.55256 -85.098 -7.85369 64 83 71
-3.55246 -85.098 -7.81811 61 80 69
-3.55237 -85.098 -7.78254 59 78 66
-3.55228 -85.098 -7.74696 57 75 64
-3.55219 -85.098 -7.71139 55 73 62
-3.55209 -85.098 -7.67581 53 71 60
-3.552 -85.098 -7.64023 52 69 58
-3.55191 -85.098 -7.60466 50 68 56
-3.55182 -85.098 -7.56908 50 66 55
-3.55172 -85.098 -7.53351 49 66 54
-3.80532 -91.1765 -8.0335 49 65 54
-3.80522 -91.1765 -7.99538 49 65 54
-3.80512 -91.1765 -7.95726 49 65 54
-3.80502 -91.1765 -7.91915 49 66 54
-3.80493 -91.1765 -7.88103 50 66 54
-3.80483 -91.1765 -7.84291 50 66 54
-3.80473 -91.1765 -7.8048 50 66 54
-3.80463 -91.1765 -7.76668 50 66 55
-3.80453 -91.1765 -7.72856 50 67 55
-3.80443 -91.1765 -7.69045 51 67 55
-3.80433 -91.1765 -7.65233 51 67 56
-3.80423 -91.1765 -7.61421 51 68 56
-3.80413 -91.1765 -7.57609 52 68 56
-3.80403 -91.1765 -7.53798 52 68 56
-4.09655 -98.19 -8.07677 52 69 57
-4.09644 -98.19 -8.03572 53 69 57
-4.09633 -98.19 -7.99468 53 69 58
-4.09623 -98.19 -7.95363 53 70 58
-3.80354 -91.1765 -7.34739 54 70 58
-3.80344 -91.1765 -7.30928 54 71 59
-3.80334 -91.1765 -7.27116 55 71 60
-3.80324 -91.1765 -7.23304 56 72 60
-4.09569 -98.19 -7.74838 57 73 61
-4.09559 -98.19 -7.70733 58 74 63
-4.09548 -98.19 -7.66628 59 76 64
-4.09538 -98.19 -7.62523 60 77 65
-4.09527 -98.19 -7.58419 61 79 67
-4.09516 -98.19 -7.54314 63 80 68
-4.09506 -98.19 -7.50209 64 82 70
-4.09495 -98.19 -7.46104 66 83 71
-4.09484 -98.19 -7.41999 67 85 73
-4.09474 -98.19 -7.37894 69 87 75
-4.09463 -98.19 -7.33789 71 89 77
-4.09452 -98.19 -7.29684 73 91 79
-4.09442 -98.19 -7.25579 75 93 81
-4.09431 -98.19 -7.21474 76 95 83
-4.0942 -98.19 -7.1737 78 97 85
-4.0941 -98.19 -7.13265 80 99 87
-4.09399 -98.19 -7.0916 82 101 89
-4.09388 -98.19 -7.05055 84 103 90
-4.09378 -98.19 -7.0095 85 105 92
-4.09367 -98.19 -6.96845 87 106 94
-4.09356 -98.19 -6.9274 88 108 95
-4.09346 -98.19 -6.88635 89 110 96
-4.09335 -98.19 -6.8453 90 111 97
-4.09324 -98.19 -6.80426 91 112 98
-4.09314 -98.19 -6.76321 91 112 99
-4.09303 -98.19 -6.72216 91 112 99
-4.09293 -98.19 -6.68111 91 112 99
-4.09282 -98.19 -6.64006 91 112 99
-4.09271 -98.19 -6.59901 90 112 99
-4.09261 -98.19 -6.55796 90 111 98
-4.0925 -98.19 -6.51691 89 111 98
-4.09239 -98.19 -6.47586 89 111 97
-4.09229 -98.19 -6.43481 88 110 97
-4.09218 -98.19 -6.39377 87 109 96
-4.09207 -98.19 -6.35272 86 109 95
-4.09197 -98.19 -6.31167 85 108 94
-4.09186 -98.19 -6.27062 84 107 93
-4.09175 -98.19 -6.22957 83 106 92
-4.09165 -98.19 -6.18852 82 104 91
-4.09154 -98.19 -6.14747 80 102 89
-4.09143 -98.19 -6.10642 78 100 88
-4.09133 -98.19 -6.06537 76 99 86
-4.09122 -98.19 -6.02432 75 97 85
-4.09111 -98.19 -5.98328 74 96 84
-4.09101 -98.19 -5.94223 74 95 84
-4.0909 -98.19 -5.90118 73 95 83
-4.0908 -98.19 -5.86013 73 95 83
-4.09069 -98.19 -5.81908 74 95 83
-4.14495 -100.115 4.06989 58 67 59
-4.14484 -100.115 4.11174 63 72 63
-3.91406 -94.5534 4.08096 82 96 85
-3.91395 -94.5534 4.12049 86 100 89
-4.06737 -98.1787 -12.0997 23 31 25
-4.06726 -98.1787 -12.0586 23 31 26
-4.06715 -98.1787 -12.0176 23 32 26
-4.06705 -98.1787 -11.9765 24 32 26
-4.06694 -98.1787 -11.9355 24 33 27
-4.06683 -98.1787 -11.8944 24 33 27
-3.84491 -92.8235 -11.2068 25 34 28
-3.8448 -92.8235 -11.168 25 34 28
-3.98979 -96.3262 -11.5492 26 35 29
-3.98968 -96.3262 -11.5089 26 36 30
-3.77585 -91.1659 -10.8542 28 37 31
-3.77575 -91.1659 -10.8161 29 38 33
-3.77565 -91.1659 -10.778 31 41 35
-3.77555 -91.1659 -10.7399 34 43 37
-3.8441 -92.8235 -10.8964 36 46 40
-3.844 -92.8235 -10.8575 39 49 43
-3.77526 -91.1659 -10.6255 42 52 46
-3.77516 -91.1659 -10.5874 45 56 49
-3.52339 -85.0882 -9.84602 48 60 53
-3.5233 -85.0882 -9.81044 51 63 56
-3.5232 -85.0882 -9.77487 55 67 60
-3.52311 -85.0882 -9.73929 58 71 64
-3.52302 -85.0882 -9.70372 62 75 68
-3.52293 -85.0882 -9.66814 65 79 71
-3.52284 -85.0882 -9.63257 69 83 75
-3.52274 -85.0882 -9.59699 72 87 78
-3.30248 -79.7702 -8.96383 75 91 82
-3.3024 -79.7702 -8.93047 78 95 85
-3.30231 -79.7702 -8.89712 81 98 88
-3.30223 -79.7702 -8.86377 84 101 91
-3.30214 -79.7702 -8.83042 86 104 94
-3.30205 -79.7702 -8.79706 88 107 96
-3.5221 -85.0882 -9.34796 90 109 99
-3.522 -85.0882 -9.31238 92 111 100
-3.52191 -85.0882 -9.27681 93 113 102
-3.52182 -85.0882 -9.24123 94 115 103
-3.52173 -85.0882 -9.20566 95 115 104
-3.52164 -85.0882 -9.17008 95 116 104
-3.52154 -85.0882 -9.1345 95 116 105
-3.52145 -85.0882 -9.09893 95 116 105
-3.52136 -85.0882 -9.06335 96 116 105
-3.52127 -85.0882 -9.02778 96 116 105
-3.52117 -85.0882 -8.9922 96 116 105
-3.52108 -85.0882 -8.95663 96 116 105
-3.52099 -85.0882 -8.92105 96 116 105
-3.5209 -85.0882 -8.88547 96 116 105
-3.5208 -85.0882 -8.8499 96 116 105
-3.52071 -85.0882 -8.81432 96 116 105
-3.30058 -79.7702 -8.23008 96 117 105
-3.30049 -79.7702 -8.19672 96 117 105
-3.3528 -81.0364 -8.29295 97 117 106
-3.35271 -81.0364 -8.25907 97 117 106
-3.52025 -85.0882 -8.63644 97 118 106
-3.52016 -85.0882 -8.60087 98 118 106
-3.52007 -85.0882 -8.56529 98 118 107
-3.51997 -85.0882 -8.52972 98 119 107
-3.29989 -79.7702 -7.96326 98 119 107
-3.2998 -79.7702 -7.9299 98 119 107
-3.29972 -79.7702 -7.89655 98 119 107
-3.29963 -79.7702 -7.8632 97 118 106
-3.29954 -79.7702 -7.82985 96 117 105
-3.29946 -79.7702 -7.7965 94 115 103
-3.29937 -79.7702 -7.76314 92 113 102
-3.29928 -79.7702 -7.72979 91 112 100
-3.2992 -79.7702 -7.69644 89 109 98
-3.29911 -79.7702 -7.66309 86 107 96
-3.51896 -85.0882 -8.13838 84 105 93
-3.51887 -85.0882 -8.10281 82 102 91
-3.51877 -85.0882 -8.06723 79 100 88
-3.51868 -85.0882 -8.03166 77 97 86
-3.29868 -79.7702 -7.49633 74 94 83
-3.29859 -79.7702 -7.46297 72 91 80
-3.2985 -79.7702 -7.42962 69 88 77
-3.29842 -79.7702 -7.39627 66 86 74
-3.51822 -85.0882 -7.85378 64 83 72
-3.51813 -85.0882 -7.8182 61 80 69
-3.51804 -85.0882 -7.78263 59 78 66
-3.51794 -85.0882 -7.74705 57 75 64
-3.51785 -85.0882 -7.71147 55 73 62
-3.51776 -85.0882 -7.6759 53 71 60
-3.51767 -85.0882 -7.64032 52 69 58
-3.51757 -85.0882 -7.60475 51 68 56
-3.51748 -85.0882 -7.56917 50 67 55
-3.51739 -85.0882 -7.5336 49 66 54
-3.76853 -91.1659 -8.03359 49 65 54
-3.76843 -91.1659 -7.99548 49 65 54
-3.76833 -91.1659 -7.95736 49 65 54
-3.76824 -91.1659 -7.91924 50 66 54
-3.76814 -91.1659 -7.88112 50 66 54
-3.76804 -91.1659 -7.84301 50 66 54
-3.76794 -91.1659 -7.80489 50 66 55
-3.76784 -91.1659 -7.76677 50 67 55
-3.76774 -91.1659 -7.72866 51 67 55
-3.76764 -91.1659 -7.69054 51 67 55
-3.76754 -91.1659 -7.65242 51 67 56
-3.76744 -91.1659 -7.61431 51 68 56
-3.76735 -91.1659 -7.57619 52 68 56
-3.76725 -91.1659 -7.53807 52 68 57
-4.05693 -98.1787 -8.07688 52 69 57
-4.05682 -98.1787 -8.03583 53 69 57
-4.05672 -98.1787 -7.99478 53 70 58
-4.05661 -98.1787 -7.95373 54 70 58
-3.76675 -91.1659 -7.34749 54 70 59
-3.76665 -91.1659 -7.30937 54 71 59
-3.76655 -91.1659 -7.27125 55 71 60
-3.76646 -91.1659 -7.23314 56 72 61
-4.05608 -98.1787 -7.74848 57 73 62
-4.05597 -98.1787 -7.70743 58 74 63
-4.05586 -98.1787 -7.66639 59 76 64
-4.05576 -98.1787 -7.62534 60 77 65
-4.05565 -98.1787 -7.58429 62 79 67
-4.05554 -98.1787 -7.54324 63 80 68
-4.05544 -98.1787 -7.50219 64 82 70
