ply
format ascii 1.0
comment author : Loiseau & Broux
comment object : 3d point Cloud
element vertex 1388
property float x
property float y
property float z
property uchar red
property uchar green
property uchar blue
end_header
2.26327 -23.9604 0.327199 23 29 19
2.2633 -23.9604 0.337612 23 29 19
2.26333 -23.9604 0.348024 23 29 19
2.26336 -23.9604 0.358436 22 29 19
2.26338 -23.9604 0.368849 22 29 19
2.26341 -23.9604 0.379261 22 29 19
2.26344 -23.9604 0.389674 22 29 19
2.23082 -23.6148 0.394316 22 29 19
2.23084 -23.6148 0.404578 22 29 19
2.23087 -23.6148 0.41484 22 29 19
2.2309 -23.6148 0.425102 22 29 19
2.23092 -23.6148 0.435365 22 29 19
2.23095 -23.6148 0.445627 22 29 19
2.23098 -23.6148 0.455889 22 29 19
2.231 -23.6148 0.466151 22 29 19
2.26368 -23.9604 0.483385 22 29 19
2.26371 -23.9604 0.493798 22 29 19
2.23108 -23.6148 0.496938 22 29 19
2.23111 -23.6148 0.5072 22 29 19
2.23114 -23.6148 0.517463 22 29 19
2.23116 -23.6148 0.527725 22 30 19
2.26384 -23.9604 0.54586 22 30 20
2.26387 -23.9604 0.556272 22 30 20
2.27499 -24.0778 0.569463 22 30 20
2.27502 -24.0778 0.579926 22 31 20
2.27505 -24.0778 0.59039 23 31 20
2.27507 -24.0778 0.600853 23 31 20
2.2751 -24.0778 0.611317 23 31 20
2.27513 -24.0778 0.62178 23 31 20
2.27516 -24.0778 0.632243 23 31 20
2.27518 -24.0778 0.642707 23 32 20
2.27521 -24.0778 0.65317 23 32 20
2.27524 -24.0778 0.663634 23 32 20
2.27526 -24.0778 0.674097 23 32 20
2.27529 -24.0778 0.684561 23 32 20
2.27532 -24.0778 0.695024 23 32 20
2.27535 -24.0778 0.705488 23 32 20
2.27537 -24.0778 0.715951 23 32 20
2.2754 -24.0778 0.726415 23 31 20
2.27543 -24.0778 0.736878 23 31 20
2.27546 -24.0778 0.747342 23 31 20
2.27548 -24.0778 0.757805 24 31 20
2.27551 -24.0778 0.768268 24 31 20
2.27554 -24.0778 0.778732 24 31 20
2.27556 -24.0778 0.789195 24 31 20
2.30955 -24.4372 0.811594 24 31 20
2.30958 -24.4372 0.822214 24 31 20
2.32116 -24.5594 0.836997 25 32 21
2.32119 -24.5594 0.84767 25 32 21
2.32121 -24.5594 0.858343 25 32 21
2.32124 -24.5594 0.869016 25 32 21
2.32127 -24.5594 0.879688 25 32 21
2.3213 -24.5594 0.890361 26 32 21
2.32132 -24.5594 0.901034 26 32 21
2.32135 -24.5594 0.911707 26 32 21
2.30983 -24.4372 0.91779 26 32 21
2.30986 -24.4372 0.92841 26 32 21
2.30989 -24.4372 0.93903 26 32 21
2.30991 -24.4372 0.949649 26 32 21
2.30994 -24.4372 0.960269 27 32 21
2.30997 -24.4372 0.970889 27 32 21
2.31 -24.4372 0.981508 27 32 21
2.31002 -24.4372 0.992128 27 32 21
2.3216 -24.5594 1.00776 27 32 21
2.32163 -24.5594 1.01843 27 32 21
2.32166 -24.5594 1.02911 27 32 20
2.32168 -24.5594 1.03978 27 32 20
2.32171 -24.5594 1.05045 27 32 20
2.32174 -24.5594 1.06112 27 32 20
2.32177 -24.5594 1.0718 27 32 20
2.32179 -24.5594 1.08247 27 32 20
2.32182 -24.5594 1.09314 27 32 21
2.32185 -24.5594 1.10382 27 32 21
2.32188 -24.5594 1.11449 27 32 21
2.32191 -24.5594 1.12516 27 33 21
2.32193 -24.5594 1.13583 27 33 21
2.32196 -24.5594 1.14651 27 33 21
2.32199 -24.5594 1.15718 27 33 21
2.32202 -24.5594 1.16785 27 34 21
2.32204 -24.5594 1.17852 27 34 21
2.32207 -24.5594 1.1892 27 34 21
2.3221 -24.5594 1.19987 27 34 21
2.32213 -24.5594 1.21054 27 34 21
2.32215 -24.5594 1.22122 27 34 21
2.32218 -24.5594 1.23189 27 34 21
2.32221 -24.5594 1.24256 27 34 21
2.32224 -24.5594 1.25323 27 34 21
2.32227 -24.5594 1.26391 27 34 21
2.32229 -24.5594 1.27458 27 34 21
2.32232 -24.5594 1.28525 27 35 21
2.32235 -24.5594 1.29592 27 35 21
2.32238 -24.5594 1.3066 27 35 21
2.3224 -24.5594 1.31727 27 35 21
2.32243 -24.5594 1.32794 27 35 21
2.32246 -24.5594 1.33862 27 35 21
2.32249 -24.5594 1.34929 28 35 21
2.32251 -24.5594 1.35996 28 35 21
2.32254 -24.5594 1.37063 28 36 21
2.32257 -24.5594 1.38131 28 36 22
2.31104 -24.4372 1.38505 28 36 22
2.31107 -24.4372 1.39567 29 36 22
2.3111 -24.4372 1.40629 29 37 22
2.31113 -24.4372 1.41691 29 37 22
2.31115 -24.4372 1.42753 30 37 22
2.31118 -24.4372 1.43815 30 38 22
2.31121 -24.4372 1.44877 30 38 22
2.31124 -24.4372 1.45939 30 39 23
2.31126 -24.4372 1.47001 31 39 23
2.31129 -24.4372 1.48063 31 39 23
2.27733 -24.0778 1.46932 31 39 23
2.27736 -24.0778 1.47978 31 40 23
2.27738 -24.0778 1.49025 31 40 23
2.27741 -24.0778 1.50071 31 40 23
2.27744 -24.0778 1.51117 31 40 23
2.27746 -24.0778 1.52164 31 40 23
2.27749 -24.0778 1.5321 30 40 23
2.27752 -24.0778 1.54256 30 40 23
2.27755 -24.0778 1.55303 30 40 23
2.27757 -24.0778 1.56349 30 40 23
2.31159 -24.4372 1.59745 30 40 23
2.31162 -24.4372 1.60807 30 39 23
2.32321 -24.5594 1.62678 30 39 23
2.32323 -24.5594 1.63745 29 39 22
2.32326 -24.5594 1.64813 29 39 22
2.32329 -24.5594 1.6588 29 39 22
2.32332 -24.5594 1.66947 29 39 22
2.32335 -24.5594 1.68014 29 39 22
2.32337 -24.5594 1.69082 29 39 22
2.3234 -24.5594 1.70149 29 38 22
2.32343 -24.5594 1.71216 29 38 22
2.32346 -24.5594 1.72283 29 38 22
2.35887 -24.9334 1.75991 29 38 22
2.3589 -24.9334 1.77074 29 38 22
2.35892 -24.9334 1.78158 29 38 22
2.35895 -24.9334 1.79241 29 39 22
2.37102 -25.0606 1.81245 29 39 22
2.37104 -25.0606 1.82334 29 39 22
2.37107 -25.0606 1.83423 29 39 22
2.3711 -25.0606 1.84512 29 39 22
2.37113 -25.0606 1.85601 29 39 22
2.37116 -25.0606 1.8669 29 39 23
2.37118 -25.0606 1.87779 29 39 23
2.37121 -25.0606 1.88868 29 39 23
2.37124 -25.0606 1.89957 29 39 23
2.37127 -25.0606 1.91046 29 39 23
2.3713 -25.0606 1.92135 28 39 23
2.37133 -25.0606 1.93224 28 39 23
2.37135 -25.0606 1.94313 28 39 22
2.37138 -25.0606 1.95402 28 39 22
2.37141 -25.0606 1.96491 28 39 22
2.37144 -25.0606 1.9758 28 39 22
2.35943 -24.9334 1.97661 28 38 22
2.35946 -24.9334 1.98745 28 38 22
2.35949 -24.9334 1.99828 28 38 22
2.35951 -24.9334 2.00912 27 38 22
2.35954 -24.9334 2.01995 27 38 22
2.35957 -24.9334 2.03079 27 38 22
2.37164 -25.0606 2.05204 27 38 22
2.37166 -25.0606 2.06293 27 38 22
2.37169 -25.0606 2.07382 27 38 22
2.37172 -25.0606 2.08471 28 38 22
2.40862 -25.4502 2.12818 28 38 23
2.40864 -25.4502 2.13923 28 39 23
2.40867 -25.4502 2.15029 28 39 23
2.4087 -25.4502 2.16135 28 39 23
2.40873 -25.4502 2.17241 28 39 23
2.40876 -25.4502 2.18347 28 40 23
2.37192 -25.0606 2.16094 28 40 23
2.37195 -25.0606 2.17183 28 40 24
2.37198 -25.0606 2.18273 28 40 24
2.372 -25.0606 2.19362 29 40 24
2.37203 -25.0606 2.20451 29 40 24
2.37206 -25.0606 2.2154 29 41 24
2.37209 -25.0606 2.22629 29 41 24
2.37212 -25.0606 2.23718 28 41 24
2.37215 -25.0606 2.24807 28 41 24
2.37217 -25.0606 2.25896 28 41 24
2.3722 -25.0606 2.26985 28 41 24
2.37223 -25.0606 2.28074 28 40 24
2.40913 -25.4502 2.32725 28 40 24
2.40916 -25.4502 2.33831 28 40 24
2.42174 -25.5827 2.36161 28 40 24
2.42177 -25.5827 2.37273 29 40 24
2.4218 -25.5827 2.38384 29 40 24
2.42182 -25.5827 2.39496 29 40 24
2.42185 -25.5827 2.40608 29 40 24
2.42188 -25.5827 2.41719 30 40 24
2.42191 -25.5827 2.42831 30 40 24
2.42194 -25.5827 2.43943 31 40 24
2.42197 -25.5827 2.45055 31 41 25
2.422 -25.5827 2.46166 32 41 25
2.42203 -25.5827 2.47278 32 41 25
2.42206 -25.5827 2.4839 33 41 25
2.42208 -25.5827 2.49502 33 42 26
2.42211 -25.5827 2.50613 34 42 26
2.42214 -25.5827 2.51725 34 42 26
2.42217 -25.5827 2.52837 34 42 26
2.46065 -25.9888 2.5798 35 42 26
2.46068 -25.9888 2.59109 35 43 26
2.42226 -25.5827 2.56172 35 43 26
2.42229 -25.5827 2.57284 35 43 26
2.42231 -25.5827 2.58396 35 43 26
2.42234 -25.5827 2.59507 34 43 26
2.42237 -25.5827 2.60619 34 42 26
2.4224 -25.5827 2.61731 34 42 26
2.46088 -25.9888 2.67015 34 42 26
2.46091 -25.9888 2.68144 33 42 26
2.46094 -25.9888 2.69273 33 42 26
2.46097 -25.9888 2.70403 32 41 26
2.461 -25.9888 2.71532 32 41 25
2.46103 -25.9888 2.72662 31 41 25
2.47415 -26.127 2.75247 31 40 25
2.47418 -26.127 2.76383 30 40 25
2.47421 -26.127 2.77518 30 40 25
2.47424 -26.127 2.78654 30 40 25
2.47427 -26.127 2.79789 29 39 25
2.4743 -26.127 2.80924 29 39 25
2.47432 -26.127 2.8206 29 39 25
2.47435 -26.127 2.83195 29 39 25
2.47438 -26.127 2.84331 30 39 25
2.47441 -26.127 2.85466 30 39 26
2.47444 -26.127 2.86601 30 39 26
2.47447 -26.127 2.87737 31 40 26
2.4745 -26.127 2.88872 31 40 27
2.47453 -26.127 2.90008 32 40 27
2.47456 -26.127 2.91143 32 41 28
2.47459 -26.127 2.92278 32 41 28
2.47462 -26.127 2.93414 33 41 29
2.47465 -26.127 2.94549 33 42 29
2.47468 -26.127 2.95685 34 42 30
2.47471 -26.127 2.9682 35 43 30
2.47474 -26.127 2.97955 35 43 31
2.47477 -26.127 2.99091 36 44 31
2.4748 -26.127 3.00226 36 44 32
2.47483 -26.127 3.01362 36 44 32
2.47486 -26.127 3.02497 37 45 33
2.47488 -26.127 3.03632 37 45 33
2.51505 -26.5507 3.0971 38 45 33
2.51508 -26.5507 3.10864 38 46 34
2.51511 -26.5507 3.12018 38 46 34
2.51514 -26.5507 3.13171 38 46 34
2.52884 -26.695 3.16033 38 46 34
2.52887 -26.695 3.17193 39 46 35
2.5289 -26.695 3.18354 39 46 35
2.52893 -26.695 3.19514 38 46 35
2.57087 -27.1375 3.25989 38 46 35
2.5709 -27.1375 3.27168 38 45 35
2.52902 -26.695 3.22994 38 45 34
2.52905 -26.695 3.24154 38 45 34
2.51541 -26.5507 3.23556 37 44 34
2.51544 -26.5507 3.24709 37 44 34
2.52914 -26.695 3.27634 37 44 33
2.52917 -26.695 3.28794 36 43 33
2.5292 -26.695 3.29954 36 42 33
2.52923 -26.695 3.31114 35 42 32
2.52926 -26.695 3.32275 35 41 32
2.52929 -26.695 3.33435 34 41 32
2.52932 -26.695 3.34595 34 40 31
2.52935 -26.695 3.35755 33 39 31
2.52938 -26.695 3.36915 33 39 30
2.52941 -26.695 3.38075 32 38 30
2.52944 -26.695 3.39235 32 38 30
2.52947 -26.695 3.40395 31 37 29
2.5295 -26.695 3.41555 31 37 29
2.52953 -26.695 3.42715 30 36 29
2.52956 -26.695 3.43875 30 35 28
2.52959 -26.695 3.45035 29 35 28
2.52962 -26.695 3.46195 29 35 28
2.52965 -26.695 3.47356 29 34 27
3.63027 -38.3694 -3.56167 54 68 58
3.63031 -38.3694 -3.54499 54 68 58
3.41852 -36.1124 -2.66157 55 70 59
3.41856 -36.1124 -2.64587 55 70 59
3.4186 -36.1124 -2.63018 55 69 59
3.41864 -36.1124 -2.61448 55 69 59
2.56873 -27.1342 -1.95268 55 69 59
2.56876 -27.1342 -1.94089 55 69 59
2.52691 -26.6918 -1.89764 55 69 59
2.52694 -26.6918 -1.88604 55 69 59
2.38482 -25.1861 -1.61545 54 68 57
2.38485 -25.1861 -1.60451 53 68 57
2.4222 -25.5796 -1.59622 53 67 55
2.42223 -25.5796 -1.58511 52 67 55
2.32542 -24.5564 -1.48968 51 65 53
2.32545 -24.5564 -1.47901 51 65 53
2.32548 -24.5564 -1.46834 50 64 52
2.32551 -24.5564 -1.45767 49 64 51
2.32553 -24.5564 -1.44699 49 63 51
2.32556 -24.5564 -1.43632 48 63 50
2.32559 -24.5564 -1.42565 48 62 49
2.32562 -24.5564 -1.41498 47 62 49
2.28004 -24.0749 -1.37677 46 61 48
2.28007 -24.0749 -1.3663 46 60 47
2.2801 -24.0749 -1.35584 45 60 46
2.28012 -24.0749 -1.34538 44 59 45
2.31418 -24.4343 -1.35484 44 58 44
2.31421 -24.4343 -1.34422 43 58 44
2.32581 -24.5564 -1.34027 42 57 43
2.32584 -24.5564 -1.32959 41 56 42
2.32587 -24.5564 -1.31892 41 56 41
2.32589 -24.5564 -1.30825 40 55 40
2.29155 -24.1935 -1.2784 39 54 40
2.29157 -24.1935 -1.26788 39 54 39
2.2916 -24.1935 -1.25737 38 53 38
2.29163 -24.1935 -1.24685 38 53 37
2.29166 -24.1935 -1.23634 37 52 37
2.29168 -24.1935 -1.22582 36 51 36
2.32609 -24.5564 -1.23354 36 51 35
2.32611 -24.5564 -1.22287 35 50 34
2.32614 -24.5564 -1.21219 35 49 34
2.32617 -24.5564 -1.20152 34 49 33
2.3262 -24.5564 -1.19085 34 48 33
2.32623 -24.5564 -1.18018 33 48 32
2.32625 -24.5564 -1.1695 33 47 31
2.32628 -24.5564 -1.15883 32 47 31
2.32631 -24.5564 -1.14816 32 46 30
2.32634 -24.5564 -1.13748 32 46 30
2.37384 -25.0576 -1.14981 31 45 29
2.37387 -25.0576 -1.13892 31 45 29
2.3739 -25.0576 -1.12803 30 44 28
2.37393 -25.0576 -1.11714 30 44 28
2.37395 -25.0576 -1.10625 30 43 27
2.37398 -25.0576 -1.09536 29 43 27
2.33822 -24.6798 -1.06812 29 42 26
2.33825 -24.6798 -1.05739 29 42 26
2.33828 -24.6798 -1.04666 28 41 26
2.3383 -24.6798 -1.03594 28 41 25
2.32664 -24.5564 -1.02008 28 41 25
2.32667 -24.5564 -1.00941 28 40 25
2.3267 -24.5564 -0.998739 28 40 25
2.32672 -24.5564 -0.988066 27 40 24
2.32675 -24.5564 -0.977393 27 39 24
2.32678 -24.5564 -0.966721 27 39 24
2.32681 -24.5564 -0.956048 27 39 24
2.32683 -24.5564 -0.945375 27 39 24
2.32686 -24.5564 -0.934703 27 39 24
2.32689 -24.5564 -0.92403 27 39 24
2.32692 -24.5564 -0.913357 28 39 24
2.32695 -24.5564 -0.902684 28 38 23
2.32697 -24.5564 -0.892012 28 38 23
2.327 -24.5564 -0.881339 28 38 23
2.32703 -24.5564 -0.870666 28 38 23
2.32706 -24.5564 -0.859993 28 38 23
2.32708 -24.5564 -0.849321 28 38 23
2.32711 -24.5564 -0.838648 28 37 23
2.32714 -24.5564 -0.827975 28 37 23
2.32717 -24.5564 -0.817302 28 37 22
2.2928 -24.1935 -0.794709 28 37 22
2.29283 -24.1935 -0.784194 28 37 22
2.28162 -24.0749 -0.769887 28 37 22
2.28164 -24.0749 -0.759423 28 36 22
2.28167 -24.0749 -0.74896 28 36 22
2.2817 -24.0749 -0.738496 28 36 22
2.29297 -24.1935 -0.731619 27 36 21
2.29299 -24.1935 -0.721104 27 35 21
2.32742 -24.5564 -0.721248 27 35 21
2.32744 -24.5564 -0.710575 27 35 21
2.32747 -24.5564 -0.699902 27 35 21
2.3275 -24.5564 -0.68923 26 34 21
2.32753 -24.5564 -0.678557 26 34 21
2.32755 -24.5564 -0.667884 26 34 21
2.32758 -24.5564 -0.657211 26 34 21
2.32761 -24.5564 -0.646539 26 34 20
2.29324 -24.1935 -0.626469 26 34 20
2.29327 -24.1935 -0.615954 26 34 20
2.28205 -24.0749 -0.602471 26 34 20
2.28208 -24.0749 -0.592008 26 34 21
2.28211 -24.0749 -0.581544 26 34 21
2.28213 -24.0749 -0.571081 26 34 21
2.28216 -24.0749 -0.560617 26 34 21
2.28219 -24.0749 -0.550154 26 34 21
2.28221 -24.0749 -0.53969 26 34 21
2.28224 -24.0749 -0.529227 26 34 21
2.28227 -24.0749 -0.518763 26 34 21
2.2823 -24.0749 -0.5083 26 34 21
2.28232 -24.0749 -0.497837 26 34 21
2.28235 -24.0749 -0.487373 26 34 21
2.28238 -24.0749 -0.47691 26 33 21
2.2824 -24.0749 -0.466446 26 33 21
2.28243 -24.0749 -0.455983 26 33 21
2.28246 -24.0749 -0.445519 26 33 21
2.28249 -24.0749 -0.435056 27 33 21
2.28251 -24.0749 -0.424592 27 33 21
2.28254 -24.0749 -0.414129 27 33 21
2.28257 -24.0749 -0.403665 27 33 21
2.28259 -24.0749 -0.393202 27 33 21
2.28262 -24.0749 -0.382738 27 33 21
2.28265 -24.0749 -0.372275 27 33 21
2.28268 -24.0749 -0.361812 27 33 21
2.2827 -24.0749 -0.351348 28 33 21
2.28273 -24.0749 -0.340885 28 34 21
2.28276 -24.0749 -0.330421 28 34 21
2.28278 -24.0749 -0.319958 28 34 21
2.28281 -24.0749 -0.309494 28 34 21
2.28284 -24.0749 -0.299031 28 34 21
2.28287 -24.0749 -0.288567 28 34 21
2.28289 -24.0749 -0.278104 28 34 21
2.28292 -24.0749 -0.26764 28 34 21
2.28295 -24.0749 -0.257177 28 34 21
2.28297 -24.0749 -0.246713 28 34 21
2.283 -24.0749 -0.23625 28 34 21
2.28303 -24.0749 -0.225787 28 34 21
2.28306 -24.0749 -0.215323 27 34 21
2.28308 -24.0749 -0.20486 27 34 21
2.28311 -24.0749 -0.194396 27 34 21
2.28314 -24.0749 -0.183933 27 34 21
2.28316 -24.0749 -0.173469 26 33 21
2.28319 -24.0749 -0.163006 26 33 21
2.28322 -24.0749 -0.152542 26 33 20
2.28325 -24.0749 -0.142079 25 32 20
2.28327 -24.0749 -0.131615 25 32 20
2.2833 -24.0749 -0.121152 25 32 20
2.28333 -24.0749 -0.110688 24 31 20
2.28335 -24.0749 -0.100225 24 31 19
2.28338 -24.0749 -0.0897615 24 31 19
2.28341 -24.0749 -0.079298 24 30 19
2.28344 -24.0749 -0.0688346 23 30 19
2.28346 -24.0749 -0.0583711 23 30 19
2.28349 -24.0749 -0.0479076 23 29 19
2.28352 -24.0749 -0.0374442 23 29 18
2.28354 -24.0749 -0.0269807 23 29 18
2.28357 -24.0749 -0.0165173 23 29 18
2.2836 -24.0749 -0.00605379 23 29 18
2.28363 -24.0749 0.00440967 23 29 18
2.28365 -24.0749 0.0148731 23 28 18
2.28368 -24.0749 0.0253366 23 28 18
2.28371 -24.0749 0.0358001 23 28 18
2.28373 -24.0749 0.0462635 23 28 18
2.28376 -24.0749 0.056727 23 28 18
2.28379 -24.0749 0.0671904 23 28 18
2.28382 -24.0749 0.0776539 23 28 18
2.28384 -24.0749 0.0881174 23 28 18
2.28387 -24.0749 0.0985808 23 28 18
2.29515 -24.1935 0.109581 23 28 18
2.29518 -24.1935 0.120096 23 28 18
2.2952 -24.1935 0.130611 23 28 18
2.29523 -24.1935 0.141126 23 28 18
2.28401 -24.0749 0.150898 23 28 18
2.28403 -24.0749 0.161362 23 28 18
2.28406 -24.0749 0.171825 23 28 18
2.28409 -24.0749 0.182289 23 28 18
2.29537 -24.1935 0.193702 23 28 18
2.29539 -24.1935 0.204217 23 28 19
2.29542 -24.1935 0.214732 23 28 19
2.29545 -24.1935 0.225247 23 28 19
2.29548 -24.1935 0.235762 23 29 19
2.2955 -24.1935 0.246277 23 29 19
2.29553 -24.1935 0.256792 23 29 19
2.29556 -24.1935 0.267307 23 29 19
2.28433 -24.0749 0.27646 23 29 19
2.28436 -24.0749 0.286923 23 29 19
2.28439 -24.0749 0.297387 23 29 19
2.28441 -24.0749 0.30785 23 29 19
2.25133 -23.726 0.3137 23 29 19
2.25136 -23.726 0.324012 23 29 19
2.25139 -23.726 0.334324 23 29 19
2.25141 -23.726 0.344636 23 29 19
2.25144 -23.726 0.354948 23 29 19
2.25147 -23.726 0.365259 22 29 19
2.25149 -23.726 0.375571 22 29 19
2.25152 -23.726 0.385883 22 29 19
2.24072 -23.612 0.39429 22 29 19
2.24075 -23.612 0.404552 22 29 19
2.24078 -23.612 0.414815 22 29 19
2.2408 -23.612 0.425077 22 29 19
2.24083 -23.612 0.435339 22 29 19
2.24086 -23.612 0.445601 22 29 19
2.24088 -23.612 0.455864 22 29 19
2.24091 -23.612 0.466126 22 29 19
2.25176 -23.726 0.478689 22 29 19
2.25179 -23.726 0.489001 22 29 19
2.24099 -23.612 0.496912 22 29 19
2.24101 -23.612 0.507175 22 30 19
2.24104 -23.612 0.517437 22 30 20
2.24107 -23.612 0.527699 22 30 20
2.25192 -23.726 0.54056 22 30 20
2.25195 -23.726 0.550872 22 31 20
2.28509 -24.0749 0.569437 23 31 20
2.28512 -24.0749 0.5799 23 31 20
2.28515 -24.0749 0.590364 23 31 20
2.28517 -24.0749 0.600827 23 31 20
2.2852 -24.0749 0.61129 23 32 20
2.28523 -24.0749 0.621754 23 32 20
2.28526 -24.0749 0.632217 23 32 20
2.28528 -24.0749 0.642681 23 32 20
2.28531 -24.0749 0.653144 23 32 20
2.28534 -24.0749 0.663608 23 32 20
2.28536 -24.0749 0.674071 23 32 20
2.28539 -24.0749 0.684535 23 32 20
2.28542 -24.0749 0.694998 23 32 20
2.28545 -24.0749 0.705462 24 32 20
2.28547 -24.0749 0.715925 24 32 20
2.2855 -24.0749 0.726389 24 32 20
2.28553 -24.0749 0.736852 24 32 20
2.28555 -24.0749 0.747315 24 32 20
2.28558 -24.0749 0.757779 24 32 20
2.28561 -24.0749 0.768242 24 32 20
2.28564 -24.0749 0.778706 24 32 20
2.28566 -24.0749 0.789169 24 32 20
2.29695 -24.1935 0.803572 24 32 20
2.29698 -24.1935 0.814087 25 32 20
2.33146 -24.5564 0.836971 25 32 21
2.33149 -24.5564 0.847644 25 32 21
2.33151 -24.5564 0.858316 25 32 21
2.33154 -24.5564 0.868989 25 32 21
2.33157 -24.5564 0.879662 26 32 21
2.3316 -24.5564 0.890335 26 32 21
2.33162 -24.5564 0.901007 26 32 21
2.33165 -24.5564 0.91168 26 32 21
2.29722 -24.1935 0.908722 26 32 21
2.29725 -24.1935 0.919237 26 32 21
2.29728 -24.1935 0.929752 27 32 21
2.2973 -24.1935 0.940267 27 32 21
2.29733 -24.1935 0.950782 27 32 21
2.29736 -24.1935 0.961297 27 32 21
2.29739 -24.1935 0.971812 27 32 21
2.29741 -24.1935 0.982327 27 32 21
2.3319 -24.5564 1.00773 27 32 21
2.33193 -24.5564 1.01841 27 32 21
2.33196 -24.5564 1.02908 27 32 21
2.33198 -24.5564 1.03975 27 32 20
2.33201 -24.5564 1.05043 27 32 20
2.33204 -24.5564 1.0611 27 32 20
2.33207 -24.5564 1.07177 27 32 20
2.3321 -24.5564 1.08244 27 32 21
2.33212 -24.5564 1.09312 27 32 21
2.33215 -24.5564 1.10379 27 32 21
2.33218 -24.5564 1.11446 27 33 21
2.33221 -24.5564 1.12513 27 33 21
2.33223 -24.5564 1.13581 28 33 21
2.33226 -24.5564 1.14648 28 33 21
2.33229 -24.5564 1.15715 28 34 21
2.33232 -24.5564 1.16783 27 34 21
2.33234 -24.5564 1.1785 27 34 21
2.33237 -24.5564 1.18917 27 34 21
2.3324 -24.5564 1.19984 27 34 21
2.33243 -24.5564 1.21052 27 34 21
2.33246 -24.5564 1.22119 27 34 21
2.33248 -24.5564 1.23186 27 34 21
2.33251 -24.5564 1.24253 27 34 21
2.33254 -24.5564 1.25321 27 34 21
2.33257 -24.5564 1.26388 27 34 21
2.33259 -24.5564 1.27455 27 34 21
2.33262 -24.5564 1.28523 27 34 21
2.33265 -24.5564 1.2959 27 34 21
2.33268 -24.5564 1.30657 27 35 21
2.3327 -24.5564 1.31724 27 35 21
2.33273 -24.5564 1.32792 27 35 21
2.33276 -24.5564 1.33859 27 35 21
2.33279 -24.5564 1.34926 27 35 21
2.33282 -24.5564 1.35993 28 35 21
2.33284 -24.5564 1.37061 28 35 21
2.33287 -24.5564 1.38128 28 35 21
2.29842 -24.1935 1.37138 28 36 21
2.29845 -24.1935 1.3819 28 36 21
2.29848 -24.1935 1.39241 29 36 22
2.2985 -24.1935 1.40293 29 37 22
2.29853 -24.1935 1.41344 29 37 22
2.29856 -24.1935 1.42396 30 37 22
2.29859 -24.1935 1.43447 30 38 22
2.29861 -24.1935 1.44499 30 38 22
2.29864 -24.1935 1.4555 30 38 23
2.29867 -24.1935 1.46602 30 39 23
2.28743 -24.0749 1.46929 30 39 23
2.28745 -24.0749 1.47976 31 39 23
2.28748 -24.0749 1.49022 31 40 23
2.28751 -24.0749 1.50068 31 40 23
2.28754 -24.0749 1.51115 31 40 23
2.28756 -24.0749 1.52161 30 40 23
2.28759 -24.0749 1.53208 30 40 23
2.28762 -24.0749 1.54254 30 40 23
2.28764 -24.0749 1.553 30 40 23
2.28767 -24.0749 1.56347 30 40 23
2.29897 -24.1935 1.58168 30 40 23
2.299 -24.1935 1.5922 30 40 23
2.33351 -24.5564 1.62675 30 39 23
2.33354 -24.5564 1.63743 29 39 22
2.33356 -24.5564 1.6481 29 39 22
2.33359 -24.5564 1.65877 29 39 22
2.33362 -24.5564 1.66944 29 39 22
2.33365 -24.5564 1.68012 29 39 22
2.33367 -24.5564 1.69079 29 39 22
2.3337 -24.5564 1.70146 29 39 22
2.33373 -24.5564 1.71213 29 39 22
2.33376 -24.5564 1.72281 29 38 22
2.34551 -24.6798 1.74219 29 38 22
2.34554 -24.6798 1.75292 29 39 22
2.34557 -24.6798 1.76364 29 39 22
2.3456 -24.6798 1.77437 29 39 22
2.38153 -25.0576 1.81242 29 39 22
2.38155 -25.0576 1.82331 29 39 22
2.38158 -25.0576 1.8342 29 39 22
2.38161 -25.0576 1.84509 29 39 22
2.38164 -25.0576 1.85598 29 39 22
2.38167 -25.0576 1.86687 29 39 22
2.3817 -25.0576 1.87776 29 39 22
2.38172 -25.0576 1.88865 29 39 22
2.38175 -25.0576 1.89954 28 39 22
2.38178 -25.0576 1.91043 28 39 22
2.38181 -25.0576 1.92133 28 39 22
2.38184 -25.0576 1.93222 28 39 22
2.38186 -25.0576 1.94311 28 39 22
2.38189 -25.0576 1.954 28 39 22
2.38192 -25.0576 1.96489 28 39 22
2.38195 -25.0576 1.97578 27 38 22
2.34607 -24.6798 1.95672 27 38 22
2.3461 -24.6798 1.96744 27 38 22
2.34612 -24.6798 1.97817 27 38 22
2.34615 -24.6798 1.9889 27 38 22
2.34618 -24.6798 1.99962 27 38 22
2.34621 -24.6798 2.01035 27 38 22
2.38215 -25.0576 2.05201 27 38 22
2.38218 -25.0576 2.0629 27 38 22
2.3822 -25.0576 2.07379 27 38 22
2.38223 -25.0576 2.08468 27 38 22
2.39448 -25.1861 2.10632 28 38 23
2.39451 -25.1861 2.11727 28 39 23
2.39453 -25.1861 2.12821 28 39 23
2.39456 -25.1861 2.13916 28 39 23
2.39459 -25.1861 2.15011 28 39 23
2.39462 -25.1861 2.16105 28 40 23
2.38243 -25.0576 2.16092 29 40 23
2.38246 -25.0576 2.17181 29 40 24
2.38249 -25.0576 2.1827 29 40 24
2.38251 -25.0576 2.19359 29 40 24
2.38254 -25.0576 2.20448 29 40 24
2.38257 -25.0576 2.21537 29 41 24
2.3826 -25.0576 2.22626 29 41 24
2.38263 -25.0576 2.23715 29 41 24
2.38266 -25.0576 2.24804 28 41 24
2.38268 -25.0576 2.25893 28 41 24
2.38271 -25.0576 2.26982 28 40 24
2.38274 -25.0576 2.28071 28 40 24
2.39499 -25.1861 2.30336 28 40 24
2.39502 -25.1861 2.3143 28 40 24
2.43247 -25.5796 2.36158 28 40 24
2.4325 -25.5796 2.3727 29 40 24
2.43253 -25.5796 2.38382 29 40 24
2.43255 -25.5796 2.39493 29 40 24
2.43258 -25.5796 2.40605 29 40 24
2.43261 -25.5796 2.41717 30 40 24
2.43264 -25.5796 2.42828 30 40 24
2.43267 -25.5796 2.4394 31 40 24
2.4327 -25.5796 2.45052 31 40 24
2.43273 -25.5796 2.46164 32 40 25
2.43276 -25.5796 2.47275 32 41 25
2.43279 -25.5796 2.48387 33 41 25
2.43281 -25.5796 2.49499 33 41 25
2.43284 -25.5796 2.50611 34 41 26
2.43287 -25.5796 2.51722 34 42 26
2.4329 -25.5796 2.52834 34 42 26
2.44567 -25.7135 2.55275 34 42 26
2.4457 -25.7135 2.56393 34 42 26
2.43299 -25.5796 2.56169 34 42 26
2.43302 -25.5796 2.57281 34 42 26
2.43304 -25.5796 2.58393 34 42 26
2.43307 -25.5796 2.59505 34 42 26
2.4331 -25.5796 2.60616 34 42 26
2.43313 -25.5796 2.61728 34 42 26
2.4459 -25.7135 2.64216 33 42 26
2.44593 -25.7135 2.65334 33 42 26
2.44596 -25.7135 2.66451 33 41 26
2.44599 -25.7135 2.67569 32 41 26
2.44602 -25.7135 2.68686 32 41 26
2.44604 -25.7135 2.69804 31 41 25
2.48511 -26.1239 2.75245 31 40 25
2.48514 -26.1239 2.7638 31 40 25
2.48517 -26.1239 2.77515 30 40 25
2.48519 -26.1239 2.78651 30 40 25
2.48522 -26.1239 2.79786 30 40 25
2.48525 -26.1239 2.80922 30 39 25
2.48528 -26.1239 2.82057 30 39 25
2.48531 -26.1239 2.83192 30 39 26
2.48534 -26.1239 2.84328 30 39 26
2.48537 -26.1239 2.85463 30 40 26
2.4854 -26.1239 2.86599 31 40 26
2.48543 -26.1239 2.87734 31 40 27
2.48546 -26.1239 2.88869 31 40 27
2.48549 -26.1239 2.90005 32 41 28
2.48552 -26.1239 2.9114 32 41 28
2.48555 -26.1239 2.92276 33 41 29
2.48558 -26.1239 2.93411 33 42 29
2.48561 -26.1239 2.94546 34 42 30
2.48564 -26.1239 2.95682 34 43 30
2.48567 -26.1239 2.96817 35 43 31
2.4857 -26.1239 2.97953 35 43 31
2.48572 -26.1239 2.99088 36 44 32
2.48575 -26.1239 3.00223 36 44 32
2.48578 -26.1239 3.01359 37 45 33
2.48581 -26.1239 3.02494 37 45 33
2.48584 -26.1239 3.03629 37 45 33
2.49917 -26.2636 3.06395 38 45 34
2.4992 -26.2636 3.07536 38 46 34
2.49922 -26.2636 3.08678 38 46 34
2.49925 -26.2636 3.09819 38 46 34
2.54003 -26.6918 3.16031 38 46 34
2.54006 -26.6918 3.17191 38 46 35
2.54009 -26.6918 3.18351 38 46 34
2.54012 -26.6918 3.19511 38 45 34
2.55403 -26.8376 3.22423 38 45 34
2.55406 -26.8376 3.2359 38 45 34
2.54021 -26.6918 3.22991 37 44 34
2.54024 -26.6918 3.24151 37 44 34
2.49952 -26.2636 3.20092 36 43 33
2.49955 -26.2636 3.21234 36 43 33
2.54033 -26.6918 3.27631 36 42 33
2.54036 -26.6918 3.28791 35 42 32
2.54039 -26.6918 3.29951 35 41 32
2.54042 -26.6918 3.31112 34 41 32
2.54045 -26.6918 3.32272 33 40 31
2.54048 -26.6918 3.33432 33 39 31
2.54051 -26.6918 3.34592 32 39 30
2.54054 -26.6918 3.35752 32 38 30
2.54058 -26.6918 3.36912 31 37 29
2.54061 -26.6918 3.38072 31 37 29
2.54064 -26.6918 3.39232 30 36 29
2.54067 -26.6918 3.40392 30 36 28
2.5407 -26.6918 3.41552 29 35 28
2.54073 -26.6918 3.42712 29 35 28
2.54076 -26.6918 3.43872 29 34 27
2.54079 -26.6918 3.45033 28 34 27
2.54082 -26.6918 3.46193 28 33 27
2.54085 -26.6918 3.47353 28 33 26
2.55476 -26.8376 3.50417 27 33 26
2.55479 -26.8376 3.51584 27 32 26
2.55482 -26.8376 3.5275 27 32 26
2.55485 -26.8376 3.53916 27 32 26
3.30813 -34.8276 -4.02053 49 64 54
3.30817 -34.8276 -4.00539 49 64 54
3.43366 -36.1081 -2.66161 55 69 59
3.43371 -36.1081 -2.64591 55 69 59
3.43375 -36.1081 -2.63022 55 69 59
3.43379 -36.1081 -2.61452 55 69 59
2.38266 -25.0546 -1.80327 55 69 59
2.38268 -25.0546 -1.79238 55 69 59
2.33506 -24.5535 -1.74586 55 69 59
2.33509 -24.5535 -1.73518 55 69 59
2.33511 -24.5535 -1.72451 55 69 59
2.33514 -24.5535 -1.71384 55 69 59
2.33517 -24.5535 -1.70317 55 69 59
2.3352 -24.5535 -1.69249 55 69 59
2.38316 -25.0546 -1.60724 53 67 56
2.38319 -25.0546 -1.59635 53 67 56
2.40779 -25.3129 -1.6018 52 67 55
2.40782 -25.3129 -1.5908 52 66 55
2.42032 -25.444 -1.58798 52 66 54
2.42035 -25.444 -1.57692 51 66 54
2.3241 -24.4313 -1.4823 50 64 52
2.32413 -24.4313 -1.47168 49 64 51
2.32416 -24.4313 -1.46106 49 63 51
2.32418 -24.4313 -1.45044 48 63 50
2.32421 -24.4313 -1.43982 48 62 49
2.32424 -24.4313 -1.4292 47 61 48
2.32427 -24.4313 -1.41858 46 61 48
2.3243 -24.4313 -1.40796 46 60 47
2.29014 -24.072 -1.37679 45 60 46
2.29017 -24.072 -1.36633 44 59 45
2.2902 -24.072 -1.35587 43 58 44
2.29022 -24.072 -1.3454 43 58 43
2.33605 -24.5535 -1.36164 42 57 43
2.33608 -24.5535 -1.35097 41 56 42
2.33611 -24.5535 -1.34029 41 55 41
2.33614 -24.5535 -1.32962 40 55 40
2.32454 -24.4313 -1.31239 39 54 39
2.32457 -24.4313 -1.30177 39 53 39
2.29041 -24.072 -1.27216 38 53 38
2.29044 -24.072 -1.2617 37 52 37
2.29047 -24.072 -1.25123 37 51 36
2.29049 -24.072 -1.24077 36 51 35
2.29052 -24.072 -1.2303 35 50 35
2.29055 -24.072 -1.21984 35 50 34
2.32476 -24.4313 -1.22743 34 49 33
2.32479 -24.4313 -1.21681 34 48 33
2.32482 -24.4313 -1.20619 33 48 32
2.32485 -24.4313 -1.19557 33 47 31
2.32487 -24.4313 -1.18495 32 47 31
2.3249 -24.4313 -1.17433 32 46 30
2.33655 -24.5535 -1.16953 32 46 30
2.33658 -24.5535 -1.15886 31 45 29
2.33661 -24.5535 -1.14818 31 45 29
2.33664 -24.5535 -1.13751 30 44 28
2.38435 -25.0546 -1.14983 30 44 28
2.38438 -25.0546 -1.13894 30 43 27
2.3723 -24.9274 -1.12233 29 43 27
2.37233 -24.9274 -1.11149 29 42 26
2.38446 -25.0546 -1.10627 29 42 26
2.38449 -25.0546 -1.09538 28 41 26
2.34857 -24.6769 -1.06814 28 41 25
2.3486 -24.6769 -1.05742 28 40 25
2.32531 -24.4313 -1.01504 27 39 24
2.32534 -24.4313 -1.00442 27 39 24
2.32537 -24.4313 -0.993796 27 39 24
2.3254 -24.4313 -0.983177 27 39 23
2.32542 -24.4313 -0.972557 27 38 23
2.32545 -24.4313 -0.961938 27 38 23
2.32548 -24.4313 -0.951318 27 38 23
2.32551 -24.4313 -0.940698 27 38 23
2.33716 -24.5535 -0.934729 27 38 23
2.33719 -24.5535 -0.924056 27 38 23
2.33722 -24.5535 -0.913384 27 38 23
2.33725 -24.5535 -0.902711 27 38 23
2.33727 -24.5535 -0.892038 27 38 23
2.3373 -24.5535 -0.881365 27 38 23
2.3257 -24.4313 -0.866361 27 38 23
2.32573 -24.4313 -0.855741 28 37 23
2.32576 -24.4313 -0.845122 28 37 23
2.32578 -24.4313 -0.834502 28 37 22
2.32581 -24.4313 -0.823882 28 37 22
2.32584 -24.4313 -0.813263 28 37 22
2.29166 -24.072 -0.79084 28 37 22
2.29169 -24.072 -0.780376 28 37 22
2.29172 -24.072 -0.769913 28 36 22
2.29174 -24.072 -0.759449 28 36 22
2.29177 -24.072 -0.748986 28 36 22
2.2918 -24.072 -0.738522 28 36 22
2.29182 -24.072 -0.728059 27 35 21
2.29185 -24.072 -0.717595 27 35 21
2.33772 -24.5535 -0.721274 27 35 21
2.33774 -24.5535 -0.710602 27 35 21
2.33777 -24.5535 -0.699929 27 34 21
2.3378 -24.5535 -0.689256 26 34 21
2.3262 -24.4313 -0.675207 26 34 21
2.32622 -24.4313 -0.664588 26 34 21
2.32625 -24.4313 -0.653968 26 34 21
2.32628 -24.4313 -0.643349 26 34 20
2.2921 -24.072 -0.623424 26 34 20
2.29212 -24.072 -0.612961 26 34 20
2.29215 -24.072 -0.602497 26 34 20
2.29218 -24.072 -0.592034 26 34 21
2.2922 -24.072 -0.58157 26 34 21
2.29223 -24.072 -0.571107 26 34 21
2.29226 -24.072 -0.560643 26 34 21
2.29229 -24.072 -0.55018 26 34 21
2.29231 -24.072 -0.539716 26 34 21
2.29234 -24.072 -0.529253 26 34 21
2.29237 -24.072 -0.518789 26 34 21
2.29239 -24.072 -0.508326 26 34 21
2.29242 -24.072 -0.497863 26 34 21
2.29245 -24.072 -0.487399 26 34 21
2.29248 -24.072 -0.476936 26 34 21
2.2925 -24.072 -0.466472 26 33 21
2.29253 -24.072 -0.456009 27 33 21
2.29256 -24.072 -0.445545 27 33 21
2.29258 -24.072 -0.435082 27 33 21
2.29261 -24.072 -0.424618 27 33 21
2.29264 -24.072 -0.414155 27 33 21
2.29267 -24.072 -0.403691 27 33 21
2.29269 -24.072 -0.393228 27 33 21
2.29272 -24.072 -0.382764 27 33 21
2.28156 -23.9546 -0.370485 27 33 21
2.28159 -23.9546 -0.360073 27 33 21
2.28162 -23.9546 -0.34966 28 33 21
2.28164 -23.9546 -0.339248 28 33 21
2.28167 -23.9546 -0.328835 28 34 21
2.2817 -23.9546 -0.318423 28 34 21
2.29291 -24.072 -0.30952 28 34 21
2.29294 -24.072 -0.299057 28 34 21
2.29296 -24.072 -0.288593 28 34 21
2.29299 -24.072 -0.27813 28 34 21
2.29302 -24.072 -0.267666 28 34 21
2.29305 -24.072 -0.257203 28 34 21
2.29307 -24.072 -0.246739 28 34 21
2.2931 -24.072 -0.236276 27 34 21
2.29313 -24.072 -0.225813 27 34 21
2.29315 -24.072 -0.215349 27 34 21
2.29318 -24.072 -0.204886 27 34 21
2.29321 -24.072 -0.194422 27 34 21
2.29324 -24.072 -0.183959 26 33 21
2.29326 -24.072 -0.173495 26 33 21
2.29329 -24.072 -0.163032 26 33 20
2.29332 -24.072 -0.152568 25 32 20
2.29334 -24.072 -0.142105 25 32 20
2.29337 -24.072 -0.131641 25 32 20
2.2934 -24.072 -0.121178 24 31 20
2.29343 -24.072 -0.110714 24 31 19
2.29345 -24.072 -0.100251 24 31 19
2.29348 -24.072 -0.0897875 24 30 19
2.29351 -24.072 -0.0793241 23 30 19
2.29353 -24.072 -0.0688606 23 30 19
2.29356 -24.072 -0.0583972 23 30 19
2.29359 -24.072 -0.0479337 23 29 19
2.29362 -24.072 -0.0374702 23 29 18
2.29364 -24.072 -0.0270068 23 29 18
2.29367 -24.072 -0.0165433 23 29 18
2.2937 -24.072 -0.00607984 23 29 18
2.29372 -24.072 0.00438362 23 29 18
2.29375 -24.072 0.0148471 23 29 18
2.29378 -24.072 0.0253105 23 28 18
2.29381 -24.072 0.035774 23 28 18
2.29383 -24.072 0.0462375 23 28 18
2.29386 -24.072 0.0567009 23 28 18
2.29389 -24.072 0.0671644 23 28 18
2.29391 -24.072 0.0776279 23 28 18
2.29394 -24.072 0.0880913 23 28 18
2.29397 -24.072 0.0985548 23 28 18
2.294 -24.072 0.109018 23 28 18
2.29402 -24.072 0.119482 23 28 18
2.29405 -24.072 0.129945 23 28 18
2.29408 -24.072 0.140409 23 28 18
2.2941 -24.072 0.150872 23 28 18
2.29413 -24.072 0.161336 24 28 18
2.29416 -24.072 0.171799 24 28 18
2.29419 -24.072 0.182262 24 28 18
2.29421 -24.072 0.192726 24 28 19
2.29424 -24.072 0.203189 24 28 19
2.29427 -24.072 0.213653 24 29 19
2.29429 -24.072 0.224116 24 29 19
2.29432 -24.072 0.23458 24 29 19
2.29435 -24.072 0.245043 24 29 19
2.29438 -24.072 0.255507 24 29 19
2.2944 -24.072 0.26597 23 29 19
2.29443 -24.072 0.276434 23 29 19
2.29446 -24.072 0.286897 23 29 19
2.28329 -23.9546 0.29591 23 29 19
2.28332 -23.9546 0.306322 23 29 19
2.25041 -23.6091 0.312167 23 29 19
2.25044 -23.6091 0.322429 23 29 19
2.25047 -23.6091 0.332691 23 29 19
2.25049 -23.6091 0.342953 23 29 19
2.25052 -23.6091 0.353216 23 29 19
2.25055 -23.6091 0.363478 22 29 19
2.25057 -23.6091 0.37374 22 29 19
2.2506 -23.6091 0.384002 22 29 19
2.25063 -23.6091 0.394265 22 29 19
2.25065 -23.6091 0.404527 22 29 19
2.25068 -23.6091 0.414789 22 29 19
2.25071 -23.6091 0.425051 22 29 19
2.25073 -23.6091 0.435313 22 29 19
2.25076 -23.6091 0.445576 22 29 19
2.25079 -23.6091 0.455838 22 29 19
2.25081 -23.6091 0.4661 22 29 19
2.25084 -23.6091 0.476362 22 29 19
2.25087 -23.6091 0.486625 22 30 19
2.25089 -23.6091 0.496887 22 30 19
2.25092 -23.6091 0.507149 22 30 19
2.25095 -23.6091 0.517411 22 30 20
2.25097 -23.6091 0.527674 22 31 20
2.251 -23.6091 0.537936 23 31 20
2.25103 -23.6091 0.548198 23 31 20
2.28399 -23.9546 0.566633 23 31 20
2.28402 -23.9546 0.577045 23 32 20
2.29525 -24.072 0.590338 23 32 20
2.29527 -24.072 0.600801 23 32 20
2.2953 -24.072 0.611264 23 32 20
2.29533 -24.072 0.621728 24 32 20
2.29535 -24.072 0.632191 24 33 21
2.29538 -24.072 0.642655 24 33 21
2.29541 -24.072 0.653118 24 33 21
2.29544 -24.072 0.663582 24 33 21
2.29546 -24.072 0.674045 24 33 21
2.29549 -24.072 0.684509 24 33 20
2.29552 -24.072 0.694972 24 33 20
2.29554 -24.072 0.705436 24 33 20
2.29557 -24.072 0.715899 24 32 20
2.2956 -24.072 0.726363 24 32 20
2.29563 -24.072 0.736826 24 32 20
2.29565 -24.072 0.747289 24 32 20
2.29568 -24.072 0.757753 24 32 20
2.29571 -24.072 0.768216 24 32 20
2.29573 -24.072 0.77868 24 32 20
2.29576 -24.072 0.789143 25 32 20
2.29579 -24.072 0.799607 25 32 20
2.29582 -24.072 0.81007 25 32 21
2.33011 -24.4313 0.83278 25 32 21
2.33014 -24.4313 0.8434 25 32 21
2.33016 -24.4313 0.85402 25 32 21
2.33019 -24.4313 0.864639 26 32 21
2.34187 -24.5535 0.879635 26 32 21
2.3419 -24.5535 0.890308 26 32 21
2.33027 -24.4313 0.896498 26 32 21
2.3303 -24.4313 0.907118 26 32 21
2.29606 -24.072 0.904241 26 32 21
2.29609 -24.072 0.914705 27 32 21
2.29611 -24.072 0.925168 27 32 21
2.29614 -24.072 0.935632 27 32 21
2.29617 -24.072 0.946095 27 32 21
2.2962 -24.072 0.956559 27 32 21
2.29622 -24.072 0.967022 27 32 21
2.29625 -24.072 0.977486 27 32 21
2.33055 -24.4313 1.00269 27 32 21
2.33058 -24.4313 1.01331 27 32 21
2.3306 -24.4313 1.02393 27 32 21
2.33063 -24.4313 1.03455 27 32 21
2.33066 -24.4313 1.04517 27 32 21
2.33069 -24.4313 1.05579 27 32 21
2.33071 -24.4313 1.06641 27 32 21
2.33074 -24.4313 1.07703 27 32 21
2.33077 -24.4313 1.08765 28 33 21
2.3308 -24.4313 1.09827 28 33 21
2.33083 -24.4313 1.10889 28 33 21
2.33085 -24.4313 1.11951 28 33 21
2.33088 -24.4313 1.13013 28 34 21
2.33091 -24.4313 1.14075 28 34 21
2.33094 -24.4313 1.15137 28 34 21
2.33096 -24.4313 1.16199 28 34 21
2.33099 -24.4313 1.17261 28 34 21
2.33102 -24.4313 1.18323 27 35 21
2.33105 -24.4313 1.19385 27 35 21
2.33107 -24.4313 1.20447 27 35 21
2.3311 -24.4313 1.21509 27 35 21
2.33113 -24.4313 1.22571 27 35 21
2.33116 -24.4313 1.23633 27 35 21
2.33118 -24.4313 1.24695 27 34 21
2.33121 -24.4313 1.25757 27 34 21
2.33124 -24.4313 1.26819 27 34 21
2.33127 -24.4313 1.27881 27 34 21
2.33129 -24.4313 1.28942 27 34 21
2.33132 -24.4313 1.30004 27 34 21
2.33135 -24.4313 1.31066 27 34 21
2.33138 -24.4313 1.32128 27 34 21
2.3314 -24.4313 1.3319 27 34 21
2.33143 -24.4313 1.34252 27 35 21
2.33146 -24.4313 1.35314 27 35 21
2.33149 -24.4313 1.36376 27 35 21
2.33151 -24.4313 1.37438 28 35 21
2.29725 -24.072 1.36463 28 35 21
2.29728 -24.072 1.3751 28 35 21
2.29731 -24.072 1.38556 28 36 21
2.29734 -24.072 1.39602 29 36 22
2.29736 -24.072 1.40649 29 36 22
2.29739 -24.072 1.41695 29 37 22
2.29742 -24.072 1.42741 30 37 22
2.29744 -24.072 1.43788 30 38 22
2.29747 -24.072 1.44834 30 38 22
2.2975 -24.072 1.4588 30 38 22
2.29753 -24.072 1.46927 30 39 23
2.29755 -24.072 1.47973 30 39 23
2.29758 -24.072 1.4902 30 39 23
2.29761 -24.072 1.50066 30 40 23
2.29763 -24.072 1.51112 30 40 23
2.29766 -24.072 1.52159 30 40 23
2.29769 -24.072 1.53205 30 40 23
2.29772 -24.072 1.54251 30 40 23
2.29774 -24.072 1.55298 30 40 23
2.29777 -24.072 1.56344 30 40 23
2.2978 -24.072 1.5739 30 40 23
2.29782 -24.072 1.58437 30 40 23
2.33215 -24.4313 1.61863 30 40 23
2.33218 -24.4313 1.62925 29 39 22
2.3322 -24.4313 1.63987 29 39 22
2.33223 -24.4313 1.65049 29 39 22
2.34392 -24.5535 1.66942 29 39 22
2.34395 -24.5535 1.68009 29 39 22
2.34397 -24.5535 1.69076 29 39 22
2.344 -24.5535 1.70144 29 39 22
2.34403 -24.5535 1.71211 29 39 22
2.34406 -24.5535 1.72278 29 39 22
2.34409 -24.5535 1.73345 29 39 22
2.34411 -24.5535 1.74413 29 39 22
2.34414 -24.5535 1.7548 29 39 22
2.34417 -24.5535 1.76547 29 39 22
2.37989 -24.9274 1.80319 29 39 22
2.37992 -24.9274 1.81403 29 39 22
2.37995 -24.9274 1.82486 29 39 22
2.37998 -24.9274 1.8357 29 39 22
2.38001 -24.9274 1.84653 29 39 22
2.38004 -24.9274 1.85737 29 39 22
2.38006 -24.9274 1.8682 28 39 22
2.38009 -24.9274 1.87904 28 39 22
2.38012 -24.9274 1.88987 28 39 22
2.38015 -24.9274 1.90071 28 39 22
2.38018 -24.9274 1.91155 28 39 22
2.3802 -24.9274 1.92238 28 39 22
2.38023 -24.9274 1.93322 28 39 22
2.38026 -24.9274 1.94405 27 39 22
2.38029 -24.9274 1.95489 27 39 22
2.38032 -24.9274 1.96572 27 38 22
2.34464 -24.5535 1.94691 27 38 22
2.34467 -24.5535 1.95758 27 38 22
2.34469 -24.5535 1.96825 27 38 22
2.34472 -24.5535 1.97893 27 38 22
2.34475 -24.5535 1.9896 27 38 22
2.34478 -24.5535 2.00027 27 38 22
2.38051 -24.9274 2.04157 27 38 22
2.38054 -24.9274 2.0524 27 38 22
2.38057 -24.9274 2.06324 27 38 22
2.3806 -24.9274 2.07407 27 38 22
2.39277 -25.0546 2.09555 28 39 23
2.3928 -25.0546 2.10644 28 39 23
2.39283 -25.0546 2.11733 28 39 23
2.39286 -25.0546 2.12822 28 39 23
2.39288 -25.0546 2.13911 28 40 23
2.39291 -25.0546 2.15 29 40 23
2.39294 -25.0546 2.16089 29 40 24
2.39297 -25.0546 2.17178 29 40 24
2.393 -25.0546 2.18267 29 40 24
2.39303 -25.0546 2.19356 29 40 24
2.39305 -25.0546 2.20445 29 41 24
2.39308 -25.0546 2.21534 29 41 24
2.39311 -25.0546 2.22623 29 41 24
2.39314 -25.0546 2.23712 29 41 24
2.39317 -25.0546 2.24801 29 41 24
2.3932 -25.0546 2.2589 29 41 24
2.39322 -25.0546 2.2698 28 40 24
2.39325 -25.0546 2.28069 28 40 24
2.39328 -25.0546 2.29158 28 40 24
2.39331 -25.0546 2.30247 28 40 24
2.43054 -25.444 2.34932 28 40 24
2.43057 -25.444 2.36038 29 40 24
2.44326 -25.5765 2.38379 29 40 24
2.44328 -25.5765 2.3949 29 40 24
2.44331 -25.5765 2.40602 29 40 24
2.44334 -25.5765 2.41714 30 40 24
2.44337 -25.5765 2.42826 30 40 24
2.4434 -25.5765 2.43937 30 40 24
2.44343 -25.5765 2.45049 31 40 24
2.44346 -25.5765 2.46161 31 40 24
2.44349 -25.5765 2.47273 32 40 25
2.44352 -25.5765 2.48384 32 41 25
2.44354 -25.5765 2.49496 33 41 25
2.44357 -25.5765 2.50608 33 41 25
2.4436 -25.5765 2.5172 34 41 26
2.44363 -25.5765 2.52831 34 42 26
2.44366 -25.5765 2.53943 34 42 26
2.44369 -25.5765 2.55055 34 42 26
2.44372 -25.5765 2.56167 34 42 26
2.44375 -25.5765 2.57278 34 42 26
2.44377 -25.5765 2.5839 34 42 26
2.4438 -25.5765 2.59502 34 42 26
2.44383 -25.5765 2.60614 34 42 26
2.44386 -25.5765 2.61725 34 42 26
2.44389 -25.5765 2.62837 33 42 26
2.44392 -25.5765 2.63949 33 42 26
2.44395 -25.5765 2.65061 33 42 26
2.44398 -25.5765 2.66172 32 41 26
2.44401 -25.5765 2.67284 32 41 26
2.44403 -25.5765 2.68396 31 41 26
2.48286 -25.9825 2.73785 31 41 26
2.48289 -25.9825 2.74915 31 40 26
2.48292 -25.9825 2.76044 31 40 26
2.48295 -25.9825 2.77174 30 40 26
2.48297 -25.9825 2.78303 30 40 26
2.483 -25.9825 2.79432 30 40 26
2.48303 -25.9825 2.80562 30 40 26
2.48306 -25.9825 2.81691 30 40 26
2.4963 -26.1207 2.84325 30 40 26
2.49633 -26.1207 2.8546 31 40 27
2.49636 -26.1207 2.86596 31 40 27
2.49639 -26.1207 2.87731 31 41 27
2.49642 -26.1207 2.88867 32 41 28
2.49645 -26.1207 2.90002 32 41 28
2.49648 -26.1207 2.91137 33 42 29
2.49651 -26.1207 2.92273 33 42 29
2.49654 -26.1207 2.93408 34 42 30
2.49657 -26.1207 2.94543 34 43 30
2.49659 -26.1207 2.95679 35 43 31
2.49662 -26.1207 2.96814 35 43 31
2.49665 -26.1207 2.9795 36 44 32
2.49668 -26.1207 2.99085 36 44 32
2.49671 -26.1207 3.0022 36 45 33
2.49674 -26.1207 3.01356 37 45 33
2.49677 -26.1207 3.02491 37 45 33
2.4968 -26.1207 3.03627 37 45 34
2.49683 -26.1207 3.04762 38 45 34
2.49686 -26.1207 3.05897 38 45 34
2.49689 -26.1207 3.07033 38 45 34
2.49692 -26.1207 3.08168 38 45 34
2.53744 -26.5443 3.14319 38 45 34
2.53747 -26.5443 3.15473 38 45 34
2.55129 -26.6886 3.18348 38 45 34
2.55132 -26.6886 3.19508 37 45 34
2.55135 -26.6886 3.20668 37 44 34
2.55138 -26.6886 3.21828 37 44 34
2.53762 -26.5443 3.21242 36 43 33
2.53765 -26.5443 3.22396 36 43 33
2.49718 -26.1207 3.18387 35 42 33
2.49721 -26.1207 3.19522 35 42 32
2.55153 -26.6886 3.27628 34 41 32
2.55156 -26.6886 3.28789 34 41 32
2.55159 -26.6886 3.29949 33 40 31
2.55162 -26.6886 3.31109 33 39 31
2.55165 -26.6886 3.32269 32 39 30
2.55168 -26.6886 3.33429 32 38 30
2.55171 -26.6886 3.34589 31 37 29
2.55174 -26.6886 3.35749 31 37 29
2.55177 -26.6886 3.36909 30 36 29
2.5518 -26.6886 3.38069 30 35 28
2.55183 -26.6886 3.39229 29 35 28
2.55186 -26.6886 3.40389 29 34 27
2.55189 -26.6886 3.41549 28 34 27
2.55192 -26.6886 3.42709 28 33 27
2.55195 -26.6886 3.4387 28 33 27
2.55198 -26.6886 3.4503 27 33 26
2.55201 -26.6886 3.4619 27 32 26
2.55204 -26.6886 3.4735 27 32 26
2.55207 -26.6886 3.4851 26 32 26
2.5521 -26.6886 3.4967 26 31 25
2.55213 -26.6886 3.5083 26 31 25
2.55216 -26.6886 3.5199 26 31 25
3.27627 -34.3364 -3.96434 49 64 54
3.27631 -34.3364 -3.94941 49 64 54
3.69165 -38.6622 -3.45534 54 69 59
3.69169 -38.6622 -3.43853 54 69 59
3.44881 -36.1037 -2.66165 55 69 59
3.44885 -36.1037 -2.64595 55 69 59
3.44889 -36.1037 -2.63026 55 69 59
3.44893 -36.1037 -2.61456 55 69 58
2.39317 -25.0516 -1.80329 55 69 58
2.39319 -25.0516 -1.7924 55 69 58
2.34536 -24.5505 -1.74588 55 69 58
2.34539 -24.5505 -1.73521 54 69 58
2.34541 -24.5505 -1.72454 54 69 58
2.34544 -24.5505 -1.71387 54 69 58
2.34547 -24.5505 -1.70319 54 68 58
2.3455 -24.5505 -1.69252 54 68 58
2.39368 -25.0516 -1.60726 52 66 55
2.3937 -25.0516 -1.59637 52 66 55
2.36955 -24.7985 -1.56947 51 66 54
2.36958 -24.7985 -1.55869 51 65 54
2.40606 -25.18 -1.57172 51 65 53
2.40609 -25.18 -1.56078 50 64 52
2.31135 -24.1877 -1.46772 49 63 51
2.31138 -24.1877 -1.45721 48 63 50
2.31141 -24.1877 -1.44669 47 62 49
2.31143 -24.1877 -1.43618 47 61 48
2.31146 -24.1877 -1.42566 46 61 48
2.31149 -24.1877 -1.41515 45 60 47
2.31152 -24.1877 -1.40463 45 59 46
2.31154 -24.1877 -1.39412 44 59 45
2.30024 -24.0691 -1.37682 43 58 44
2.30027 -24.0691 -1.36636 43 57 43
2.30029 -24.0691 -1.35589 42 57 43
2.30032 -24.0691 -1.34543 41 56 42
2.34636 -24.5505 -1.36166 40 55 41
2.34638 -24.5505 -1.35099 40 54 40
2.34641 -24.5505 -1.34032 39 54 39
2.34644 -24.5505 -1.32965 38 53 38
2.31179 -24.1877 -1.29948 38 52 37
2.31182 -24.1877 -1.28897 37 52 37
2.30051 -24.0691 -1.27218 36 51 36
2.30054 -24.0691 -1.26172 36 50 35
2.30057 -24.0691 -1.25126 35 50 34
2.30059 -24.0691 -1.24079 35 49 34
2.30062 -24.0691 -1.23033 34 48 33
2.30065 -24.0691 -1.21987 33 48 32
2.31201 -24.1877 -1.21536 33 47 32
2.31204 -24.1877 -1.20485 32 47 31
2.31206 -24.1877 -1.19433 32 46 30
2.31209 -24.1877 -1.18382 32 46 30
2.31212 -24.1877 -1.1733 31 45 29
2.31214 -24.1877 -1.16279 31 45 29
2.34685 -24.5505 -1.16956 30 44 28
2.34688 -24.5505 -1.15888 30 44 28
2.34691 -24.5505 -1.14821 30 43 27
2.34694 -24.5505 -1.13754 29 43 27
2.39486 -25.0516 -1.14986 29 42 26
2.39489 -25.0516 -1.13897 29 42 26
2.35881 -24.6739 -1.11107 28 41 26
2.35884 -24.6739 -1.10035 28 41 25
2.39498 -25.0516 -1.1063 28 40 25
2.395 -25.0516 -1.09541 27 40 25
2.38287 -24.9244 -1.07901 27 40 24
2.3829 -24.9244 -1.06818 27 39 24
2.31255 -24.1877 -1.00506 26 38 23
2.31258 -24.1877 -0.994547 26 38 23
2.31261 -24.1877 -0.984032 26 38 23
2.31264 -24.1877 -0.973517 26 38 23
2.31266 -24.1877 -0.963002 26 38 23
2.31269 -24.1877 -0.952487 26 38 23
2.31272 -24.1877 -0.941972 26 37 23
2.31274 -24.1877 -0.931457 26 37 23
2.34746 -24.5505 -0.934756 26 37 23
2.34749 -24.5505 -0.924083 27 37 23
2.34752 -24.5505 -0.91341 27 37 23
2.34755 -24.5505 -0.902737 27 37 23
2.34757 -24.5505 -0.892065 27 37 23
2.3476 -24.5505 -0.881392 27 37 22
2.31294 -24.1877 -0.857851 27 37 22
2.31296 -24.1877 -0.847336 27 37 22
2.31299 -24.1877 -0.836821 28 37 22
2.31302 -24.1877 -0.826306 28 37 22
2.31304 -24.1877 -0.815791 28 37 22
2.31307 -24.1877 -0.805276 28 37 22
2.30176 -24.0691 -0.790866 28 37 22
2.30179 -24.0691 -0.780402 28 36 22
2.30181 -24.0691 -0.769939 28 36 22
2.30184 -24.0691 -0.759475 28 36 22
2.30187 -24.0691 -0.749012 28 36 22
2.3019 -24.0691 -0.738548 28 36 21
2.30192 -24.0691 -0.728085 27 35 21
2.30195 -24.0691 -0.717621 27 35 21
2.34802 -24.5505 -0.721301 27 35 21
2.34804 -24.5505 -0.710628 27 35 21
2.34807 -24.5505 -0.699956 27 34 21
2.3481 -24.5505 -0.689283 27 34 21
2.31343 -24.1877 -0.668581 26 34 21
2.31345 -24.1877 -0.658066 26 34 21
2.31348 -24.1877 -0.647551 26 34 21
2.31351 -24.1877 -0.637036 26 34 20
2.30219 -24.0691 -0.62345 26 34 20
2.30222 -24.0691 -0.612987 26 34 20
2.30225 -24.0691 -0.602523 26 34 21
2.30228 -24.0691 -0.59206 26 34 21
2.3023 -24.0691 -0.581596 26 34 21
2.30233 -24.0691 -0.571133 26 34 21
2.30236 -24.0691 -0.560669 26 34 21
2.30238 -24.0691 -0.550206 26 34 21
2.30241 -24.0691 -0.539742 26 34 21
2.30244 -24.0691 -0.529279 26 34 21
2.30247 -24.0691 -0.518816 26 34 21
2.30249 -24.0691 -0.508352 27 34 21
2.30252 -24.0691 -0.497889 27 34 21
2.30255 -24.0691 -0.487425 27 34 21
2.30257 -24.0691 -0.476962 27 34 21
2.3026 -24.0691 -0.466498 27 34 21
2.30263 -24.0691 -0.456035 27 33 21
2.30266 -24.0691 -0.445571 27 33 21
2.30268 -24.0691 -0.435108 27 33 21
2.30271 -24.0691 -0.424644 27 33 21
2.30274 -24.0691 -0.414181 27 33 21
2.30276 -24.0691 -0.403717 27 33 21
2.30279 -24.0691 -0.393254 27 33 21
2.30282 -24.0691 -0.382791 27 33 21
2.26947 -23.7203 -0.366931 27 33 21
2.2695 -23.7203 -0.356619 27 33 21
2.26953 -23.7203 -0.346307 27 33 21
2.26955 -23.7203 -0.335996 28 33 21
2.26958 -23.7203 -0.325684 28 33 21
2.26961 -23.7203 -0.315372 28 34 21
2.30301 -24.0691 -0.309546 28 34 21
2.30304 -24.0691 -0.299083 28 34 21
2.30306 -24.0691 -0.288619 28 34 21
2.30309 -24.0691 -0.278156 28 34 21
2.30312 -24.0691 -0.267692 28 34 21
2.30314 -24.0691 -0.257229 28 34 21
2.30317 -24.0691 -0.246766 27 34 21
2.3032 -24.0691 -0.236302 27 34 21
2.30323 -24.0691 -0.225839 27 34 21
2.30325 -24.0691 -0.215375 27 34 21
2.30328 -24.0691 -0.204912 27 34 21
2.30331 -24.0691 -0.194448 26 33 21
2.30333 -24.0691 -0.183985 26 33 21
2.30336 -24.0691 -0.173521 26 33 20
2.30339 -24.0691 -0.163058 26 33 20
2.30342 -24.0691 -0.152594 25 32 20
2.30344 -24.0691 -0.142131 25 32 20
2.30347 -24.0691 -0.131667 25 32 20
2.3035 -24.0691 -0.121204 24 31 20
2.30352 -24.0691 -0.110741 24 31 19
2.30355 -24.0691 -0.100277 24 31 19
2.30358 -24.0691 -0.0898136 24 30 19
2.30361 -24.0691 -0.0793501 23 30 19
2.30363 -24.0691 -0.0688867 23 30 19
2.30366 -24.0691 -0.0584232 23 30 19
2.30369 -24.0691 -0.0479597 23 30 18
2.30371 -24.0691 -0.0374963 23 29 18
2.30374 -24.0691 -0.0270328 23 29 18
2.30377 -24.0691 -0.0165694 23 29 18
2.3038 -24.0691 -0.00610589 23 29 18
2.30382 -24.0691 0.00435757 23 29 18
2.30385 -24.0691 0.014821 23 29 18
2.30388 -24.0691 0.0252845 23 29 18
2.30391 -24.0691 0.035748 23 28 18
2.30393 -24.0691 0.0462114 24 28 18
2.30396 -24.0691 0.0566749 24 28 18
2.30399 -24.0691 0.0671383 24 28 18
2.30401 -24.0691 0.0776018 24 28 18
2.30404 -24.0691 0.0880653 24 28 18
2.30407 -24.0691 0.0985287 24 28 18
2.3041 -24.0691 0.108992 24 28 18
2.30412 -24.0691 0.119456 24 28 18
2.30415 -24.0691 0.129919 24 28 18
2.30418 -24.0691 0.140383 24 28 18
2.3042 -24.0691 0.150846 24 28 18
2.30423 -24.0691 0.16131 24 28 18
2.30426 -24.0691 0.171773 24 28 19
2.30429 -24.0691 0.182236 24 29 19
2.30431 -24.0691 0.1927 24 29 19
2.30434 -24.0691 0.203163 24 29 19
2.30437 -24.0691 0.213627 24 29 19
2.30439 -24.0691 0.22409 24 29 19
2.30442 -24.0691 0.234554 24 29 19
2.30445 -24.0691 0.245017 24 29 19
2.30448 -24.0691 0.255481 24 29 19
2.3045 -24.0691 0.265944 24 29 19
2.30453 -24.0691 0.276408 24 29 19
2.30456 -24.0691 0.286871 24 29 19
2.27118 -23.7203 0.293025 23 29 19
2.27121 -23.7203 0.303337 23 29 19
2.26032 -23.6063 0.312141 23 29 19
2.26034 -23.6063 0.322403 23 29 19
2.26037 -23.6063 0.332666 23 29 19
2.2604 -23.6063 0.342928 23 29 19
2.26042 -23.6063 0.35319 22 29 19
2.26045 -23.6063 0.363452 22 29 19
2.26048 -23.6063 0.373714 22 29 19
2.2605 -23.6063 0.383977 22 29 19
2.26053 -23.6063 0.394239 22 29 19
