ply
format ascii 1.0
comment author : Loiseau & Broux
comment object : 3d point Cloud
element vertex 1331
property float x
property float y
property float z
property uchar red
property uchar green
property uchar blue
end_header
-6.47136 -63.4137 41.5621 108 125 111
-6.31721 -61.9039 40.598 107 124 110
-6.31715 -61.9039 40.6234 107 122 108
-6.31708 -61.9039 40.6488 106 120 106
-6.31702 -61.9039 40.6742 104 118 104
-6.31695 -61.9039 40.6996 103 116 102
-6.31689 -61.9039 40.725 102 114 99
-6.31682 -61.9039 40.7504 101 111 97
-6.31675 -61.9039 40.7758 100 109 95
-6.31669 -61.9039 40.8013 98 106 92
-6.31662 -61.9039 40.8267 97 104 90
-6.31656 -61.9039 40.8521 96 101 87
-6.31649 -61.9039 40.8775 95 98 84
-6.31642 -61.9039 40.9029 93 96 82
-6.31636 -61.9039 40.9283 92 94 80
-6.31629 -61.9039 40.9537 91 91 77
-6.31623 -61.9039 40.9791 90 89 75
-6.31616 -61.9039 41.0045 88 87 73
-6.31609 -61.9039 41.03 87 85 71
-6.31603 -61.9039 41.0554 87 83 70
-6.31596 -61.9039 41.0808 86 82 69
-6.3159 -61.9039 41.1062 85 81 68
-6.31583 -61.9039 41.1316 85 81 68
-6.31576 -61.9039 41.157 85 81 68
-6.3157 -61.9039 41.1824 85 82 69
-6.31563 -61.9039 41.2078 86 83 70
-6.31557 -61.9039 41.2332 87 85 72
-6.3155 -61.9039 41.2587 87 87 74
-6.31543 -61.9039 41.2841 88 89 76
-6.31537 -61.9039 41.3095 90 91 78
-6.3153 -61.9039 41.3349 91 93 80
-6.31524 -61.9039 41.3603 92 96 83
-6.31517 -61.9039 41.3857 93 98 85
-6.3151 -61.9039 41.4111 94 100 87
-6.31504 -61.9039 41.4365 96 103 90
-6.31497 -61.9039 41.4619 97 105 92
-6.31491 -61.9039 41.4874 98 107 95
-6.31484 -61.9039 41.5128 99 110 97
-6.31478 -61.9039 41.5382 100 112 99
-6.39079 -62.6497 42.0644 101 114 101
-6.39072 -62.6497 42.0901 102 116 103
-6.63031 -64.9991 43.6951 103 117 104
-6.63024 -64.9991 43.7218 104 119 106
-6.39052 -62.6497 42.1672 104 120 107
-6.39046 -62.6497 42.1929 105 121 108
-6.63003 -64.9991 43.8019 105 122 109
-6.62996 -64.9991 43.8285 106 123 109
-6.79989 -66.6657 44.9797 106 123 110
-6.79982 -66.6657 45.0071 105 123 110
-7.08222 -69.3245 32.207 90 106 96
-7.08215 -69.3245 32.2355 88 103 93
-6.31247 -61.8968 32.9745 41 46 36
-6.3124 -61.8968 32.9999 41 47 37
-7.46156 -73.2301 41.5976 100 118 110
-7.46149 -73.2301 41.6277 104 122 114
-6.36864 -62.6426 41.0356 111 129 114
-6.36857 -62.6426 41.0613 110 127 113
-6.29269 -61.8968 40.5979 109 126 111
-6.29262 -61.8968 40.6233 108 124 110
-6.29256 -61.8968 40.6487 107 122 108
-6.29249 -61.8968 40.6741 106 120 106
-6.29243 -61.8968 40.6995 105 118 103
-6.29236 -61.8968 40.725 104 115 101
-6.29229 -61.8968 40.7504 102 113 99
-6.29223 -61.8968 40.7758 101 111 96
-6.29216 -61.8968 40.8012 100 108 94
-6.2921 -61.8968 40.8266 98 105 91
-6.29203 -61.8968 40.852 97 103 89
-6.29196 -61.8968 40.8774 96 100 86
-6.2919 -61.8968 40.9028 94 98 84
-6.29183 -61.8968 40.9282 93 95 81
-6.29177 -61.8968 40.9537 92 93 79
-6.2917 -61.8968 40.9791 90 91 77
-6.29163 -61.8968 41.0045 89 89 75
-6.29157 -61.8968 41.0299 88 87 73
-6.2915 -61.8968 41.0553 87 85 71
-6.29144 -61.8968 41.0807 86 84 70
-6.29137 -61.8968 41.1061 86 83 69
-6.2913 -61.8968 41.1315 85 82 69
-6.29124 -61.8968 41.1569 85 83 69
-6.29117 -61.8968 41.1824 86 83 70
-6.29111 -61.8968 41.2078 86 85 72
-6.29104 -61.8968 41.2332 87 86 73
-6.29098 -61.8968 41.2586 88 88 75
-6.29091 -61.8968 41.284 89 90 77
-6.29084 -61.8968 41.3094 90 92 79
-6.29078 -61.8968 41.3348 91 94 81
-6.2167 -61.1686 40.8736 92 96 83
-6.21664 -61.1686 40.8988 93 99 86
-6.29058 -61.8968 41.4111 95 101 88
-6.29051 -61.8968 41.4365 96 103 91
-6.29045 -61.8968 41.4619 97 106 93
-6.29038 -61.8968 41.4873 98 108 95
-6.29032 -61.8968 41.5127 100 110 97
-6.29025 -61.8968 41.5381 101 112 100
-6.29018 -61.8968 41.5635 102 114 102
-6.29012 -61.8968 41.5889 103 116 103
-6.52302 -64.1893 43.1556 104 118 105
-6.52295 -64.1893 43.182 104 120 107
-6.28992 -61.8968 41.6652 105 121 108
-6.28985 -61.8968 41.6906 106 122 109
-6.60428 -64.9917 43.8018 106 123 110
-6.60421 -64.9917 43.8285 106 124 111
-6.60414 -64.9917 43.8552 106 124 111
-6.60407 -64.9917 43.8818 106 124 111
-7.64798 -75.3441 42.8033 99 116 108
-7.6479 -75.3441 42.8342 102 120 112
-6.50045 -64.182 42.0488 112 130 116
-6.50039 -64.182 42.0751 111 129 115
-6.26816 -61.8898 40.5978 110 127 113
-6.2681 -61.8898 40.6232 109 126 111
-6.26803 -61.8898 40.6487 108 124 109
-6.26797 -61.8898 40.6741 107 122 107
-6.2679 -61.8898 40.6995 106 119 105
-6.26783 -61.8898 40.7249 105 117 103
-6.26777 -61.8898 40.7503 103 115 100
-6.2677 -61.8898 40.7757 102 112 98
-6.26764 -61.8898 40.8011 101 110 95
-6.26757 -61.8898 40.8265 99 107 93
-6.2675 -61.8898 40.8519 98 104 90
-6.26744 -61.8898 40.8774 96 102 88
-6.26737 -61.8898 40.9028 95 99 85
-6.26731 -61.8898 40.9282 94 97 83
-6.26724 -61.8898 40.9536 92 95 81
-6.26717 -61.8898 40.979 91 92 78
-6.26711 -61.8898 41.0044 90 90 76
-6.26704 -61.8898 41.0298 89 88 74
-6.26698 -61.8898 41.0552 88 86 73
-6.26691 -61.8898 41.0807 87 85 71
-6.26685 -61.8898 41.1061 86 84 71
-6.26678 -61.8898 41.1315 86 83 70
-6.26671 -61.8898 41.1569 86 84 70
-6.26665 -61.8898 41.1823 86 84 71
-6.26658 -61.8898 41.2077 86 86 72
-6.26652 -61.8898 41.2331 87 87 74
-6.26645 -61.8898 41.2585 88 89 76
-6.26638 -61.8898 41.2839 89 91 78
-6.26632 -61.8898 41.3094 90 93 80
-6.26625 -61.8898 41.3348 91 95 82
-6.05011 -59.7557 39.934 93 97 84
-6.05005 -59.7557 39.9585 94 99 87
-6.26605 -61.8898 41.411 95 102 89
-6.26599 -61.8898 41.4364 96 104 91
-6.26592 -61.8898 41.4618 98 106 94
-6.26586 -61.8898 41.4872 99 109 96
-6.26579 -61.8898 41.5126 100 111 98
-6.26572 -61.8898 41.5381 101 113 101
-6.26566 -61.8898 41.5635 103 115 103
-6.26559 -61.8898 41.5889 104 117 105
-6.34101 -62.6355 42.1157 105 119 106
-6.34095 -62.6355 42.1414 105 121 108
-6.26539 -61.8898 41.6651 106 122 109
-6.26533 -61.8898 41.6905 107 123 110
-6.57853 -64.9843 43.8017 107 124 111
-6.57846 -64.9843 43.8284 108 125 112
-6.57839 -64.9843 43.8551 108 125 112
-6.57832 -64.9843 43.8818 108 125 112
-7.11162 -70.2533 47.4686 108 125 112
-7.11155 -70.2533 47.4974 107 125 112
-6.7455 -66.643 35.4014 39 42 33
-6.74543 -66.643 35.4288 40 43 34
-6.74536 -66.643 35.4562 40 44 35
-6.74529 -66.643 35.4835 41 45 35
-6.24351 -61.8828 40.6486 109 125 111
-6.24344 -61.8828 40.674 108 123 108
-6.24337 -61.8828 40.6994 107 120 106
-6.24331 -61.8828 40.7248 106 118 104
-6.24324 -61.8828 40.7502 104 116 102
-6.24318 -61.8828 40.7757 103 113 99
-6.24311 -61.8828 40.8011 101 111 97
-6.24305 -61.8828 40.8265 100 108 94
-6.24298 -61.8828 40.8519 98 106 91
-6.24291 -61.8828 40.8773 97 103 89
-6.24285 -61.8828 40.9027 96 100 86
-6.24278 -61.8828 40.9281 94 98 84
-6.24272 -61.8828 40.9535 93 96 82
-6.24265 -61.8828 40.9789 92 93 79
-6.24258 -61.8828 41.0044 90 91 77
-6.24252 -61.8828 41.0298 89 89 75
-6.24245 -61.8828 41.0552 88 88 74
-6.24239 -61.8828 41.0806 87 86 72
-6.24232 -61.8828 41.106 86 85 71
-6.24225 -61.8828 41.1314 86 84 71
-6.24219 -61.8828 41.1568 86 85 71
-6.24212 -61.8828 41.1822 86 85 72
-6.16862 -61.1547 40.7228 87 86 73
-6.16856 -61.1547 40.748 87 88 75
-6.16849 -61.1547 40.7731 88 89 76
-6.16842 -61.1547 40.7982 89 91 78
-6.16836 -61.1547 40.8233 90 93 80
-6.16829 -61.1547 40.8484 92 95 83
-5.95795 -59.0699 39.4801 93 98 85
-5.95789 -59.0699 39.5044 94 100 87
-6.24153 -61.8828 41.4109 96 102 90
-6.24146 -61.8828 41.4363 97 105 92
-6.2414 -61.8828 41.4618 98 107 95
-6.24133 -61.8828 41.4872 100 109 97
-6.24127 -61.8828 41.5126 101 112 99
-6.2412 -61.8828 41.538 102 114 101
-6.24113 -61.8828 41.5634 103 116 104
-6.24107 -61.8828 41.5888 104 118 106
-6.241 -61.8828 41.6142 105 120 107
-6.24094 -61.8828 41.6396 106 122 109
-6.24087 -61.8828 41.665 107 123 110
-6.2408 -61.8828 41.6905 108 124 112
-6.47188 -64.1747 43.2609 109 126 113
-6.47181 -64.1747 43.2873 109 126 113
-6.47174 -64.1747 43.3136 109 127 114
-6.47167 -64.1747 43.34 109 127 114
-6.80779 -67.5085 45.6191 109 127 114
-6.80772 -67.5085 45.6468 109 127 113
-7.08079 -70.2453 48.6223 102 121 107
-7.08071 -70.2453 48.6512 102 121 107
-7.17763 -71.2076 49.3469 102 121 107
-7.17756 -71.2076 49.3761 103 121 108
-6.21898 -61.8757 40.6485 110 125 111
-6.21892 -61.8757 40.6739 109 123 109
-6.21885 -61.8757 40.6994 107 121 107
-6.21878 -61.8757 40.7248 106 119 105
-6.21872 -61.8757 40.7502 105 116 102
-6.21865 -61.8757 40.7756 103 114 100
-6.21859 -61.8757 40.801 102 111 97
-6.21852 -61.8757 40.8264 100 109 95
-6.21845 -61.8757 40.8518 99 106 92
-6.21839 -61.8757 40.8772 97 104 90
-6.21832 -61.8757 40.9026 96 101 87
-6.21826 -61.8757 40.9281 95 99 85
-6.21819 -61.8757 40.9535 93 96 82
-6.21812 -61.8757 40.9789 92 94 80
-6.21806 -61.8757 41.0043 91 92 78
-6.21799 -61.8757 41.0297 89 90 76
-6.21793 -61.8757 41.0551 88 88 75
-6.21786 -61.8757 41.0805 87 87 73
-6.21779 -61.8757 41.1059 86 86 72
-6.21773 -61.8757 41.1313 86 85 72
-6.21766 -61.8757 41.1568 86 85 72
-6.2176 -61.8757 41.1822 86 86 73
-6.00313 -59.7421 39.7866 87 87 74
-6.00307 -59.7421 39.8112 88 88 75
-6.00301 -59.7421 39.8357 88 90 77
-6.00294 -59.7421 39.8602 89 92 79
-6.00288 -59.7421 39.8848 91 94 81
-6.00281 -59.7421 39.9093 92 96 83
-5.93454 -59.0632 39.48 93 98 85
-5.93448 -59.0632 39.5043 94 100 88
-6.217 -61.8757 41.4109 96 103 90
-6.21694 -61.8757 41.4363 97 105 93
-6.21687 -61.8757 41.4617 99 108 95
-6.21681 -61.8757 41.4871 100 110 98
-6.21674 -61.8757 41.5125 101 112 100
-6.21667 -61.8757 41.5379 103 114 102
-6.21661 -61.8757 41.5633 104 117 104
-6.21654 -61.8757 41.5887 105 119 106
-6.21648 -61.8757 41.6142 106 121 108
-6.21641 -61.8757 41.6396 107 122 110
-6.21634 -61.8757 41.665 108 124 111
-6.21628 -61.8757 41.6904 109 125 113
-6.29111 -62.6212 42.2184 109 126 114
-6.29104 -62.6212 42.2441 110 127 115
-6.29097 -62.6212 42.2698 110 128 115
-6.29091 -62.6212 42.2956 110 128 115
-6.60936 -65.7919 44.4641 110 128 115
-6.60929 -65.7919 44.4911 110 128 115
-6.06882 -60.4367 41.8378 104 123 109
-6.06875 -60.4367 41.8626 104 123 109
-6.28804 -62.6212 43.4014 104 123 109
-6.28797 -62.6212 43.4271 104 123 110
-7.56259 -75.3184 41.1944 115 132 119
-7.56251 -75.3184 41.2253 114 131 118
-7.56243 -75.3184 41.2563 113 129 116
-7.56235 -75.3184 41.2872 111 127 114
-7.56227 -75.3184 41.3181 109 125 112
-7.56219 -75.3184 41.3491 106 122 110
-6.26909 -62.6141 41.1382 110 126 112
-6.26902 -62.6141 41.1639 109 124 110
-6.19432 -61.8687 40.6993 108 121 108
-6.19426 -61.8687 40.7247 106 119 105
-6.19419 -61.8687 40.7501 105 117 103
-6.19413 -61.8687 40.7755 103 114 100
-6.19406 -61.8687 40.8009 102 112 98
-6.19399 -61.8687 40.8263 100 109 95
-6.19393 -61.8687 40.8518 99 107 93
-6.19386 -61.8687 40.8772 98 104 90
-6.1938 -61.8687 40.9026 96 102 88
-6.19373 -61.8687 40.928 95 99 85
-6.19366 -61.8687 40.9534 93 97 83
-6.1936 -61.8687 40.9788 92 95 81
-6.19353 -61.8687 41.0042 91 93 79
-6.19347 -61.8687 41.0296 90 91 77
-6.1934 -61.8687 41.055 89 89 75
-6.19334 -61.8687 41.0805 87 87 74
-6.19327 -61.8687 41.1059 87 86 73
-6.1932 -61.8687 41.1313 86 86 72
-6.19314 -61.8687 41.1567 86 86 72
-6.19307 -61.8687 41.1821 86 86 73
-5.91151 -59.0565 39.3344 87 87 74
-5.91144 -59.0565 39.3587 88 89 76
-5.91138 -59.0565 39.383 88 90 77
-5.91132 -59.0565 39.4072 89 92 79
-5.91125 -59.0565 39.4315 91 94 81
-5.91119 -59.0565 39.4557 92 96 83
-5.97907 -59.7353 39.9338 93 98 86
-5.97901 -59.7353 39.9583 94 101 88
-6.19248 -61.8687 41.4108 96 103 90
-6.19241 -61.8687 41.4362 97 105 93
-6.19235 -61.8687 41.4616 99 108 95
-6.19228 -61.8687 41.487 100 110 98
-6.19221 -61.8687 41.5125 101 112 100
-6.19215 -61.8687 41.5379 103 115 102
-6.19208 -61.8687 41.5633 104 117 105
-6.19202 -61.8687 41.5887 105 119 107
-6.19195 -61.8687 41.6141 106 121 109
-6.19188 -61.8687 41.6395 107 123 110
-6.19182 -61.8687 41.6649 108 124 112
-6.19175 -61.8687 41.6903 109 126 113
-6.19169 -61.8687 41.7157 110 127 114
-6.19162 -61.8687 41.7412 110 128 115
-6.26615 -62.6141 42.2698 111 128 116
-6.26609 -62.6141 42.2955 111 129 116
-6.50099 -64.9621 43.9083 111 129 116
-6.50092 -64.9621 43.9349 110 129 115
-6.58062 -65.7844 45.4908 105 124 110
-6.58055 -65.7844 45.5178 105 124 110
-7.32054 -73.1884 40.0339 112 128 116
-7.32046 -73.1884 40.064 111 127 115
-7.32038 -73.1884 40.094 110 126 113
-7.32031 -73.1884 40.1241 108 124 112
-7.32023 -73.1884 40.1542 106 122 110
-7.32015 -73.1884 40.1842 104 119 107
-6.39845 -64.1528 42.1539 110 126 112
-6.39838 -64.1528 42.1803 109 124 110
-6.1698 -61.8616 40.6992 108 122 108
-6.16973 -61.8616 40.7246 106 119 106
-6.16967 -61.8616 40.7501 105 117 103
-6.1696 -61.8616 40.7755 104 115 101
-6.16953 -61.8616 40.8009 102 112 98
-6.16947 -61.8616 40.8263 101 110 96
-6.1694 -61.8616 40.8517 99 107 93
-6.16934 -61.8616 40.8771 98 104 90
-6.16927 -61.8616 40.9025 96 102 88
-6.16921 -61.8616 40.9279 95 100 86
-6.16914 -61.8616 40.9533 93 97 83
-6.16907 -61.8616 40.9788 92 95 81
-6.16901 -61.8616 41.0042 91 93 79
-6.16894 -61.8616 41.0296 90 91 77
-6.16888 -61.8616 41.055 89 89 75
-6.16881 -61.8616 41.0804 88 87 74
-6.16874 -61.8616 41.1058 87 86 73
-6.16868 -61.8616 41.1312 86 86 72
-6.16861 -61.8616 41.1566 86 86 73
-6.16855 -61.8616 41.182 86 87 73
-5.88809 -59.0497 39.3344 87 88 74
-5.88803 -59.0497 39.3586 88 89 76
-5.88797 -59.0497 39.3829 89 90 77
-5.88791 -59.0497 39.4072 89 92 79
-5.88784 -59.0497 39.4314 91 94 81
-5.88778 -59.0497 39.4557 92 96 84
-6.09552 -61.1339 40.8733 93 98 86
-6.09545 -61.1339 40.8984 94 101 88
-6.16795 -61.8616 41.4107 96 103 91
-6.16789 -61.8616 41.4362 97 105 93
-6.16782 -61.8616 41.4616 99 108 96
-6.16775 -61.8616 41.487 100 110 98
-6.16769 -61.8616 41.5124 101 112 100
-6.16762 -61.8616 41.5378 103 115 103
-6.16756 -61.8616 41.5632 104 117 105
-6.16749 -61.8616 41.5886 105 119 107
-6.16743 -61.8616 41.614 106 121 109
-6.16736 -61.8616 41.6394 108 123 111
-6.16729 -61.8616 41.6649 108 124 112
-6.16723 -61.8616 41.6903 109 126 114
-6.16716 -61.8616 41.7157 110 127 115
-6.1671 -61.8616 41.7411 111 128 116
-6.39544 -64.1528 43.3134 111 129 116
-6.39537 -64.1528 43.3398 111 129 116
-6.47524 -64.9547 43.9082 111 129 116
-6.47517 -64.9547 43.9349 111 129 116
-6.09187 -61.1339 42.2796 105 125 111
-6.0918 -61.1339 42.3047 106 125 111
-7.19025 -72.1637 39.4778 108 125 112
-7.19018 -72.1637 39.5075 108 124 112
-7.1901 -72.1637 39.5371 107 122 110
-7.19002 -72.1637 39.5667 105 121 109
-7.18995 -72.1637 39.5964 104 119 107
-7.18987 -72.1637 39.626 101 117 105
-6.37301 -64.1455 42.1538 110 126 112
-6.37294 -64.1455 42.1802 109 124 110
-6.14527 -61.8546 40.6992 108 121 108
-6.14521 -61.8546 40.7246 106 119 106
-6.14514 -61.8546 40.75 105 117 103
-6.14508 -61.8546 40.7754 104 115 101
-6.14501 -61.8546 40.8008 102 112 98
-6.14494 -61.8546 40.8262 101 109 96
-6.14488 -61.8546 40.8516 99 107 93
-6.14481 -61.8546 40.877 98 104 91
-6.14475 -61.8546 40.9025 96 102 88
-6.14468 -61.8546 40.9279 95 100 86
-6.14461 -61.8546 40.9533 93 97 83
-6.14455 -61.8546 40.9787 92 95 81
-6.14448 -61.8546 41.0041 91 93 79
-6.14442 -61.8546 41.0295 90 91 77
-6.14435 -61.8546 41.0549 89 89 75
-6.14428 -61.8546 41.0803 87 88 74
-6.14422 -61.8546 41.1057 87 86 73
-6.14415 -61.8546 41.1312 86 86 72
-6.0718 -61.1269 40.6724 86 86 73
-6.07174 -61.1269 40.6975 86 87 73
-5.86468 -59.043 39.3343 87 88 74
-5.86462 -59.043 39.3586 88 89 76
-5.86456 -59.043 39.3828 88 90 77
-5.8645 -59.043 39.4071 89 92 79
-5.86443 -59.043 39.4314 91 94 81
-5.86437 -59.043 39.4556 92 96 83
-6.14356 -61.8546 41.3599 93 98 86
-6.14349 -61.8546 41.3853 94 101 88
-6.14343 -61.8546 41.4107 96 103 91
-6.14336 -61.8546 41.4361 97 105 93
-6.1433 -61.8546 41.4615 99 108 96
-6.14323 -61.8546 41.4869 100 110 98
-6.14316 -61.8546 41.5123 101 112 100
-6.1431 -61.8546 41.5377 103 115 103
-6.14303 -61.8546 41.5631 104 117 105
-6.14297 -61.8546 41.5886 105 119 107
-6.1429 -61.8546 41.614 107 121 109
-6.14283 -61.8546 41.6394 108 123 111
-6.14277 -61.8546 41.6648 109 125 112
-6.1427 -61.8546 41.6902 109 126 114
-6.14264 -61.8546 41.7156 110 127 115
-6.14257 -61.8546 41.741 111 128 116
-6.44963 -64.9473 43.8548 111 129 117
-6.44956 -64.9473 43.8814 111 129 117
-6.61486 -66.6126 45.034 111 129 117
-6.61479 -66.6126 45.0613 111 129 116
-5.317 -53.5648 37.0491 106 125 112
-5.31694 -53.5648 37.0711 106 126 112
-6.14079 -61.8476 32.9741 41 45 34
-6.14072 -61.8476 32.9995 42 46 35
-7.16164 -72.1555 39.4777 105 121 109
-7.16156 -72.1555 39.5074 104 120 108
-7.16149 -72.1555 39.537 104 119 107
-7.16141 -72.1555 39.5667 102 118 106
-7.16133 -72.1555 39.5963 101 116 105
-7.16126 -72.1555 39.626 99 114 103
-6.19463 -62.5927 41.138 110 125 112
-6.19456 -62.5927 41.1637 109 123 110
-6.12075 -61.8476 40.6991 107 121 108
-6.12068 -61.8476 40.7245 106 119 105
-6.12062 -61.8476 40.7499 105 117 103
-6.12055 -61.8476 40.7753 103 114 101
-6.12048 -61.8476 40.8007 102 112 98
-6.12042 -61.8476 40.8262 100 109 96
-6.12035 -61.8476 40.8516 99 107 93
-6.12029 -61.8476 40.877 97 104 90
-6.12022 -61.8476 40.9024 96 102 88
-6.12015 -61.8476 40.9278 95 99 86
-6.12009 -61.8476 40.9532 93 97 83
-6.12002 -61.8476 40.9786 92 95 81
-6.11996 -61.8476 41.004 91 93 79
-6.11989 -61.8476 41.0294 90 91 77
-6.11982 -61.8476 41.0549 88 89 75
-6.11976 -61.8476 41.0803 87 87 74
-6.11969 -61.8476 41.1057 87 86 73
-6.11963 -61.8476 41.1311 86 86 72
-5.90854 -59.7149 39.7373 86 86 72
-5.90848 -59.7149 39.7618 86 86 73
-5.84127 -59.0363 39.3343 87 87 74
-5.84121 -59.0363 39.3585 87 89 76
-5.84115 -59.0363 39.3828 88 90 77
-5.84108 -59.0363 39.407 89 92 79
-5.84102 -59.0363 39.4313 90 94 81
-5.84096 -59.0363 39.4555 92 96 83
-6.11903 -61.8476 41.3598 93 98 86
-6.11897 -61.8476 41.3852 94 100 88
-6.1189 -61.8476 41.4106 96 103 90
-6.11884 -61.8476 41.436 97 105 93
-6.11877 -61.8476 41.4614 99 108 95
-6.1187 -61.8476 41.4869 100 110 98
-6.11864 -61.8476 41.5123 101 112 100
-6.11857 -61.8476 41.5377 103 115 103
-6.11851 -61.8476 41.5631 104 117 105
-6.11844 -61.8476 41.5885 105 119 107
-6.11837 -61.8476 41.6139 107 121 109
-6.11831 -61.8476 41.6393 108 123 111
-6.11824 -61.8476 41.6647 109 125 113
-6.11818 -61.8476 41.6901 109 126 114
-6.11811 -61.8476 41.7156 110 127 115
-6.11804 -61.8476 41.741 111 128 116
-6.42388 -64.9399 43.8547 111 129 117
-6.42381 -64.9399 43.8814 111 129 117
-6.94458 -70.2053 47.4682 111 129 117
-6.94451 -70.2053 47.497 111 129 117
-6.18769 -62.5856 34.2457 101 116 105
-6.18762 -62.5856 34.2714 101 116 105
-6.58419 -66.5975 36.4957 100 115 104
-6.58412 -66.5975 36.523 99 114 103
-7.13272 -72.1473 39.5962 98 113 102
-7.13264 -72.1473 39.6259 96 111 100
-6.09635 -61.8405 40.6482 109 125 112
-6.09629 -61.8405 40.6736 108 123 110
-6.09622 -61.8405 40.699 107 121 107
-6.09616 -61.8405 40.7244 106 118 105
-6.09609 -61.8405 40.7499 104 116 103
-6.09602 -61.8405 40.7753 103 114 100
-6.09596 -61.8405 40.8007 101 111 98
-6.09589 -61.8405 40.8261 100 109 95
-6.09583 -61.8405 40.8515 99 106 93
-6.09576 -61.8405 40.8769 97 104 90
-6.0957 -61.8405 40.9023 96 101 88
-6.09563 -61.8405 40.9277 94 99 85
-6.09556 -61.8405 40.9532 93 97 83
-6.0955 -61.8405 40.9786 92 95 81
-6.09543 -61.8405 41.004 90 92 79
-6.09537 -61.8405 41.0294 89 90 77
-6.0953 -61.8405 41.0548 88 89 75
-6.09523 -61.8405 41.0802 87 87 73
-6.09517 -61.8405 41.1056 86 86 72
-6.0951 -61.8405 41.131 86 85 72
-5.81799 -59.0296 39.2857 86 85 72
-5.81793 -59.0296 39.31 86 86 73
-5.81786 -59.0296 39.3342 86 87 74
-5.8178 -59.0296 39.3585 87 88 75
-5.81774 -59.0296 39.3827 88 90 77
-5.81767 -59.0296 39.407 89 92 79
-5.81761 -59.0296 39.4312 90 94 81
-5.81755 -59.0296 39.4555 91 96 83
-6.02281 -61.113 40.8731 93 98 85
-6.02274 -61.113 40.8983 94 100 88
-6.09438 -61.8405 41.4106 95 102 90
-6.09431 -61.8405 41.436 97 105 93
-6.02255 -61.113 40.9736 98 107 95
-6.02248 -61.113 40.9987 100 110 98
-6.09411 -61.8405 41.5122 101 112 100
-6.09405 -61.8405 41.5376 102 114 102
-6.09398 -61.8405 41.563 104 117 105
-6.09391 -61.8405 41.5884 105 119 107
-6.09385 -61.8405 41.6138 106 121 109
-6.09378 -61.8405 41.6393 107 123 111
-6.09372 -61.8405 41.6647 108 124 112
-6.09365 -61.8405 41.6901 109 126 114
-6.09359 -61.8405 41.7155 110 127 115
-6.09352 -61.8405 41.7409 111 128 116
-6.47911 -65.7545 44.4097 111 129 117
-6.47904 -65.7545 44.4368 111 129 117
-5.68341 -57.7112 31.6295 97 112 101
-5.68335 -57.7112 31.6532 96 111 100
-7.10411 -72.139 39.5962 95 110 99
-7.10403 -72.139 39.6258 93 108 97
-6.07183 -61.8335 40.6482 109 124 111
-6.07176 -61.8335 40.6736 108 122 109
-6.0717 -61.8335 40.699 106 120 107
-6.07163 -61.8335 40.7244 105 118 104
-6.07157 -61.8335 40.7498 104 115 102
-6.0715 -61.8335 40.7752 102 113 100
-6.07143 -61.8335 40.8006 101 111 97
-6.07137 -61.8335 40.826 100 108 95
-6.0713 -61.8335 40.8514 98 106 92
-6.07124 -61.8335 40.8769 97 103 90
-6.07117 -61.8335 40.9023 95 101 87
-6.0711 -61.8335 40.9277 94 98 85
-6.07104 -61.8335 40.9531 93 96 82
-6.07097 -61.8335 40.9785 91 94 80
-6.07091 -61.8335 41.0039 90 92 78
-6.07084 -61.8335 41.0293 89 90 76
-6.07077 -61.8335 41.0547 88 88 74
-6.07071 -61.8335 41.0801 87 86 73
-6.07064 -61.8335 41.1056 86 85 72
-6.07058 -61.8335 41.131 86 85 71
-5.79458 -59.0229 39.2856 86 85 71
-5.79452 -59.0229 39.3099 86 85 72
-5.79445 -59.0229 39.3341 86 86 73
-5.79439 -59.0229 39.3584 87 88 74
-5.79433 -59.0229 39.3827 88 89 76
-5.79426 -59.0229 39.4069 89 91 78
-5.7942 -59.0229 39.4312 90 93 80
-5.79414 -59.0229 39.4554 91 95 82
-5.86067 -59.7013 39.9335 92 97 85
-5.86061 -59.7013 39.958 94 100 87
-6.06985 -61.8335 41.4105 95 102 89
-6.06979 -61.8335 41.4359 96 104 92
-5.86042 -59.7013 40.0316 98 107 95
-5.86035 -59.7013 40.0561 99 109 97
-6.06959 -61.8335 41.5121 101 112 100
-6.06952 -61.8335 41.5375 102 114 102
-6.06946 -61.8335 41.563 103 116 104
-6.06939 -61.8335 41.5884 105 118 106
-6.06932 -61.8335 41.6138 106 120 108
-6.06926 -61.8335 41.6392 107 122 110
-6.06919 -61.8335 41.6646 108 124 112
-6.06913 -61.8335 41.69 109 126 114
-6.06906 -61.8335 41.7154 110 127 115
-6.06899 -61.8335 41.7408 110 128 116
-6.62065 -67.4547 45.5632 111 128 116
-6.62058 -67.4547 45.5909 111 129 116
-6.53123 -66.5823 36.5502 91 106 96
-6.53115 -66.5823 36.5776 90 105 94
-6.04744 -61.8264 40.5973 110 127 114
-6.04737 -61.8264 40.6227 109 125 112
-6.0473 -61.8264 40.6481 108 123 110
-6.04724 -61.8264 40.6735 107 121 108
-6.04717 -61.8264 40.6989 106 119 106
-6.04711 -61.8264 40.7243 104 117 104
-6.04704 -61.8264 40.7497 103 115 101
-6.04697 -61.8264 40.7751 102 112 99
-6.04691 -61.8264 40.8006 100 110 96
-6.04684 -61.8264 40.826 99 107 94
-6.04678 -61.8264 40.8514 98 105 91
-6.04671 -61.8264 40.8768 96 102 89
-6.04664 -61.8264 40.9022 95 100 86
-6.04658 -61.8264 40.9276 93 98 84
-6.04651 -61.8264 40.953 92 95 82
-6.04645 -61.8264 40.9784 91 93 79
-6.04638 -61.8264 41.0038 90 91 77
-6.04631 -61.8264 41.0293 89 89 75
-6.04625 -61.8264 41.0547 87 87 73
-6.04618 -61.8264 41.0801 86 85 72
-5.97499 -61.0991 40.6219 86 84 71
-5.97492 -61.0991 40.647 85 84 70
-5.77117 -59.0161 39.2856 85 84 70
-5.7711 -59.0161 39.3098 85 85 71
-5.77104 -59.0161 39.3341 86 86 72
-5.77098 -59.0161 39.3583 87 87 74
-5.77092 -59.0161 39.3826 87 88 75
-5.77085 -59.0161 39.4069 88 90 77
-5.77079 -59.0161 39.4311 89 92 79
-5.77073 -59.0161 39.4554 91 94 81
-5.77066 -59.0161 39.4796 92 97 84
-5.7706 -59.0161 39.5039 93 99 86
-6.04533 -61.8264 41.4104 94 101 89
-6.04526 -61.8264 41.4358 96 104 91
-5.83674 -59.6945 40.0316 97 106 94
-5.83668 -59.6945 40.0561 99 109 96
-6.04506 -61.8264 41.5121 100 111 99
-6.045 -61.8264 41.5375 101 113 101
-6.04493 -61.8264 41.5629 103 116 104
-6.04486 -61.8264 41.5883 104 118 106
-6.0448 -61.8264 41.6137 105 120 108
-6.04473 -61.8264 41.6391 106 122 110
-6.04467 -61.8264 41.6645 107 124 111
-6.0446 -61.8264 41.69 108 125 113
-6.19196 -63.3344 42.7328 109 126 114
-6.19189 -63.3344 42.7588 110 127 115
-6.76973 -69.2456 46.7781 110 128 116
-6.76966 -69.2456 46.8066 110 128 116
-5.83445 -59.6877 31.7877 39 41 31
-5.83438 -59.6877 31.8123 39 42 32
-5.6375 -57.6981 31.6768 88 103 92
-5.63744 -57.6981 31.7005 87 102 91
-6.02291 -61.8194 40.5972 109 126 113
-6.02284 -61.8194 40.6226 108 124 111
-6.02278 -61.8194 40.648 107 122 109
-6.02271 -61.8194 40.6734 106 120 107
-6.02265 -61.8194 40.6988 105 118 105
-6.02258 -61.8194 40.7243 104 116 103
-6.02251 -61.8194 40.7497 102 114 101
-6.02245 -61.8194 40.7751 101 111 98
-6.02238 -61.8194 40.8005 100 109 96
-6.02232 -61.8194 40.8259 98 106 93
-6.02225 -61.8194 40.8513 97 104 91
-6.02218 -61.8194 40.8767 96 101 88
-6.02212 -61.8194 40.9021 94 99 86
-6.02205 -61.8194 40.9275 93 97 83
-6.02199 -61.8194 40.953 92 94 81
-6.02192 -61.8194 40.9784 90 92 78
-6.02186 -61.8194 41.0038 89 90 76
-6.02179 -61.8194 41.0292 88 88 74
-6.02172 -61.8194 41.0546 87 86 72
-6.02166 -61.8194 41.08 86 84 71
-5.81395 -59.6877 39.688 85 83 70
-5.81389 -59.6877 39.7125 85 83 69
-5.74776 -59.0094 39.2855 85 83 70
-5.74769 -59.0094 39.3098 85 84 70
-5.74763 -59.0094 39.334 85 85 71
-5.74757 -59.0094 39.3583 86 86 73
-5.74751 -59.0094 39.3825 87 87 74
-5.74744 -59.0094 39.4068 88 89 76
-5.74738 -59.0094 39.431 89 91 78
-5.74732 -59.0094 39.4553 90 93 81
-5.74725 -59.0094 39.4796 91 96 83
-5.74719 -59.0094 39.5038 93 98 85
-6.0208 -61.8194 41.4104 94 101 88
-6.02073 -61.8194 41.4358 95 103 91
-5.94984 -61.0921 40.9734 97 106 93
-5.94977 -61.0921 40.9985 98 108 96
-6.02054 -61.8194 41.512 100 110 98
-6.02047 -61.8194 41.5374 101 113 101
-6.0204 -61.8194 41.5628 102 115 103
-6.02034 -61.8194 41.5882 103 117 105
-6.02027 -61.8194 41.6137 105 119 107
-6.02021 -61.8194 41.6391 106 121 109
-6.02014 -61.8194 41.6645 107 123 111
-6.02008 -61.8194 41.6899 108 125 112
-6.48309 -66.5747 44.9242 108 126 114
-6.48302 -66.5747 44.9515 109 127 115
-6.92698 -71.1346 48.0596 109 127 115
-6.92691 -71.1346 48.0889 110 128 115
-7.32325 -75.2498 41.3794 83 97 87
-7.32317 -75.2498 41.4103 82 96 86
-5.99838 -61.8123 40.5971 108 125 112
-5.99832 -61.8123 40.6226 107 123 111
-5.99825 -61.8123 40.648 106 121 109
-5.99819 -61.8123 40.6734 105 120 107
-5.99812 -61.8123 40.6988 104 117 104
-5.99805 -61.8123 40.7242 103 115 102
-5.99799 -61.8123 40.7496 102 113 100
-5.99792 -61.8123 40.775 100 111 97
-5.99786 -61.8123 40.8004 99 108 95
-5.99779 -61.8123 40.8258 98 106 92
-5.99773 -61.8123 40.8513 96 103 90
-5.99766 -61.8123 40.8767 95 101 87
-5.99759 -61.8123 40.9021 94 98 85
-5.99753 -61.8123 40.9275 92 96 82
-5.99746 -61.8123 40.9529 91 93 80
-5.9974 -61.8123 40.9783 90 91 77
-5.99733 -61.8123 41.0037 89 89 75
-5.99726 -61.8123 41.0291 88 87 73
-5.9972 -61.8123 41.0545 87 85 71
-5.99713 -61.8123 41.08 86 83 70
-5.72447 -59.0027 39.2369 85 82 69
-5.72441 -59.0027 39.2612 84 81 68
-5.72435 -59.0027 39.2855 84 82 68
-5.72428 -59.0027 39.3097 84 82 69
-5.72422 -59.0027 39.334 85 83 70
-5.72416 -59.0027 39.3582 86 85 71
-5.72409 -59.0027 39.3825 86 86 73
-5.72403 -59.0027 39.4067 87 88 75
-5.72397 -59.0027 39.431 88 90 77
-5.72391 -59.0027 39.4552 89 92 79
-5.78963 -59.6809 39.9333 91 95 82
-5.78957 -59.6809 39.9578 92 97 84
-5.99627 -61.8123 41.4103 93 100 87
-5.99621 -61.8123 41.4357 95 102 90
-5.99614 -61.8123 41.4611 96 105 92
-5.99608 -61.8123 41.4865 98 107 95
-5.99601 -61.8123 41.5119 99 110 97
-5.99595 -61.8123 41.5374 100 112 100
-5.99588 -61.8123 41.5628 101 114 102
-5.99581 -61.8123 41.5882 103 117 104
-6.06799 -62.5571 42.115 104 119 107
-6.06792 -62.5571 42.1407 105 121 109
-6.14185 -63.32 42.6806 106 123 110
-6.14178 -63.32 42.7066 107 124 112
-6.71494 -69.2298 46.7211 108 125 113
-6.71487 -69.2298 46.7495 108 126 114
-5.78722 -59.6741 31.7385 38 38 30
-5.78715 -59.6741 31.7631 38 38 30
-7.08795 -73.1218 40.2137 80 94 85
-7.08787 -73.1218 40.2438 79 94 84
-5.97386 -61.8053 40.5971 107 124 111
-5.97379 -61.8053 40.6225 107 123 110
-5.97373 -61.8053 40.6479 106 121 108
-5.97366 -61.8053 40.6733 105 119 106
-5.9736 -61.8053 40.6987 103 117 104
-5.97353 -61.8053 40.7241 102 114 101
-5.97346 -61.8053 40.7495 101 112 99
-5.9734 -61.8053 40.775 100 110 97
-5.97333 -61.8053 40.8004 98 107 94
-5.97327 -61.8053 40.8258 97 105 91
-5.9732 -61.8053 40.8512 96 102 89
-5.97313 -61.8053 40.8766 94 99 86
-5.97307 -61.8053 40.902 93 97 84
-5.973 -61.8053 40.9274 92 94 81
-5.97294 -61.8053 40.9528 90 92 79
-5.97287 -61.8053 40.9782 89 90 76
-5.9728 -61.8053 41.0037 88 87 74
-5.97274 -61.8053 41.0291 87 85 72
-5.97267 -61.8053 41.0545 86 83 70
-5.97261 -61.8053 41.0799 85 81 68
-5.70106 -58.996 39.2369 84 80 67
-5.701 -58.996 39.2611 84 80 67
-5.70094 -58.996 39.2854 84 80 67
-5.70087 -58.996 39.3096 84 81 67
-5.70081 -58.996 39.3339 84 82 68
-5.70075 -58.996 39.3582 85 83 70
-5.70068 -58.996 39.3824 86 85 72
-5.70062 -58.996 39.4067 87 87 74
-5.70056 -58.996 39.4309 88 89 76
-5.7005 -58.996 39.4552 89 91 78
-5.90162 -61.0782 40.8728 90 93 80
-5.90156 -61.0782 40.8979 91 96 83
-5.97175 -61.8053 41.4102 93 98 86
-5.97168 -61.8053 41.4356 94 101 88
-5.97162 -61.8053 41.4611 95 104 91
-5.97155 -61.8053 41.4865 97 106 94
-5.97149 -61.8053 41.5119 98 109 96
-5.97142 -61.8053 41.5373 100 111 99
-5.97135 -61.8053 41.5627 101 114 101
-5.97129 -61.8053 41.5881 102 116 104
-6.19238 -64.0944 43.1548 103 118 106
-6.19231 -64.0944 43.1811 104 120 108
-6.4304 -66.5596 44.8693 105 122 110
-6.43033 -66.5596 44.8967 106 124 111
-6.87069 -71.1184 48.001 107 125 113
-6.87062 -71.1184 48.0303 108 126 114
-6.03836 -62.5428 34.3996 77 91 82
-6.03829 -62.5428 34.4253 77 91 81
-5.94933 -61.7983 40.597 107 123 111
-5.94927 -61.7983 40.6224 106 122 109
-5.9492 -61.7983 40.6478 105 120 107
-5.94914 -61.7983 40.6732 104 118 105
-5.94907 -61.7983 40.6987 103 116 103
-5.949 -61.7983 40.7241 101 113 100
-5.94894 -61.7983 40.7495 100 111 98
-5.94887 -61.7983 40.7749 99 109 96
-5.94881 -61.7983 40.8003 98 106 93
-5.94874 -61.7983 40.8257 96 103 90
-5.94867 -61.7983 40.8511 95 101 88
-5.94861 -61.7983 40.8765 94 98 85
-5.94854 -61.7983 40.9019 92 95 82
-5.94848 -61.7983 40.9274 91 93 80
-5.94841 -61.7983 40.9528 90 90 77
-5.94834 -61.7983 40.9782 89 88 75
-5.94828 -61.7983 41.0036 87 85 72
-5.94821 -61.7983 41.029 86 83 70
-5.94815 -61.7983 41.0544 85 81 68
-5.94808 -61.7983 41.0798 84 79 66
-5.67765 -58.9893 39.2368 83 78 65
-5.67759 -58.9893 39.2611 83 78 65
-5.67753 -58.9893 39.2853 83 78 65
-5.67746 -58.9893 39.3096 83 79 66
-5.6774 -58.9893 39.3338 84 80 67
-5.67734 -58.9893 39.3581 84 81 68
-5.67727 -58.9893 39.3824 85 83 70
-5.67721 -58.9893 39.4066 86 85 72
-5.67715 -58.9893 39.4309 87 87 74
-5.67708 -58.9893 39.4551 88 89 76
-5.94736 -61.7983 41.3594 89 92 79
-5.94729 -61.7983 41.3848 91 94 82
-5.94722 -61.7983 41.4102 92 97 84
-5.94716 -61.7983 41.4356 93 100 87
-5.94709 -61.7983 41.461 95 102 90
-5.94703 -61.7983 41.4864 96 105 93
-5.94696 -61.7983 41.5118 97 108 95
-5.94689 -61.7983 41.5372 99 110 98
-5.94683 -61.7983 41.5626 100 113 100
-5.94676 -61.7983 41.5881 101 115 103
-6.32307 -65.7095 44.2472 102 117 105
-6.323 -65.7095 44.2742 104 120 107
-6.66015 -69.2141 46.664 105 121 109
-6.66008 -69.2141 46.6925 105 123 111
-6.93751 -72.098 48.6676 106 124 112
-6.93743 -72.098 48.6973 107 125 113
-6.6702 -69.2062 32.2059 78 90 80
-6.67012 -69.2062 32.2344 76 88 77
-5.92481 -61.7912 40.597 106 122 110
-5.92474 -61.7912 40.6224 105 121 108
-5.92468 -61.7912 40.6478 104 119 106
-5.92461 -61.7912 40.6732 103 117 104
-5.92454 -61.7912 40.6986 102 115 102
-5.92448 -61.7912 40.724 101 112 100
-5.92441 -61.7912 40.7494 99 110 97
-5.92435 -61.7912 40.7748 98 107 95
-5.92428 -61.7912 40.8002 97 105 92
-5.92422 -61.7912 40.8257 95 102 89
-5.92415 -61.7912 40.8511 94 99 86
-5.92408 -61.7912 40.8765 93 97 84
-5.92402 -61.7912 40.9019 92 94 81
-5.92395 -61.7912 40.9273 90 91 78
-5.92389 -61.7912 40.9527 89 89 76
-5.92382 -61.7912 40.9781 88 86 73
-5.92375 -61.7912 41.0035 87 83 70
-5.92369 -61.7912 41.0289 85 81 68
-5.92362 -61.7912 41.0544 84 79 66
-5.92356 -61.7912 41.0798 83 77 64
-5.65424 -58.9825 39.2368 83 76 63
-5.65418 -58.9825 39.261 82 76 63
-5.65411 -58.9825 39.2853 82 76 63
-5.65405 -58.9825 39.3095 82 76 64
-5.65399 -58.9825 39.3338 83 78 65
-5.65393 -58.9825 39.358 83 79 66
-5.65386 -58.9825 39.3823 84 81 68
-5.6538 -58.9825 39.4066 85 83 70
-5.65374 -58.9825 39.4308 86 85 72
-5.65367 -58.9825 39.4551 87 88 75
-5.92283 -61.7912 41.3593 88 90 77
-5.92276 -61.7912 41.3847 90 93 80
-5.9227 -61.7912 41.4101 91 96 83
-5.92263 -61.7912 41.4355 92 99 86
-5.92257 -61.7912 41.4609 94 101 89
-5.9225 -61.7912 41.4863 95 104 92
-5.92243 -61.7912 41.5118 97 107 94
-5.92237 -61.7912 41.5372 98 110 97
-5.9223 -61.7912 41.5626 99 112 100
-5.92224 -61.7912 41.588 100 115 102
-6.46055 -67.4086 45.3964 102 117 104
-6.46048 -67.4086 45.4242 103 119 106
-6.8144 -71.1022 47.9424 104 121 108
-6.81433 -71.1022 47.9716 105 123 110
-6.90889 -72.0898 48.6676 105 124 111
-6.90882 -72.0898 48.6972 106 125 112
-6.14014 -64.0725 33.8785 36 31 26
-6.14008 -64.0725 33.9049 36 32 26
-7.20366 -75.2155 41.441 71 85 76
-7.20358 -75.2155 41.4719 71 85 75
-5.90028 -61.7842 40.5969 105 122 109
-5.90022 -61.7842 40.6223 104 120 107
-5.90015 -61.7842 40.6477 103 118 105
-5.90009 -61.7842 40.6731 102 116 103
-5.90002 -61.7842 40.6985 101 114 101
-5.89995 -61.7842 40.7239 100 111 99
-5.89989 -61.7842 40.7494 98 109 96
-5.89982 -61.7842 40.7748 97 106 93
-5.89976 -61.7842 40.8002 96 103 91
-5.89969 -61.7842 40.8256 95 101 88
-5.89962 -61.7842 40.851 93 98 85
-5.89956 -61.7842 40.8764 92 95 82
-5.89949 -61.7842 40.9018 91 92 79
-5.89943 -61.7842 40.9272 89 89 77
-5.89936 -61.7842 40.9526 88 87 74
-5.89929 -61.7842 40.9781 87 84 71
-5.89923 -61.7842 41.0035 86 81 69
-5.89916 -61.7842 41.0289 84 79 66
-5.8991 -61.7842 41.0543 83 77 64
-5.89903 -61.7842 41.0797 82 75 62
-5.69555 -59.6537 39.6877 82 74 61
-5.69549 -59.6537 39.7122 81 73 61
-5.69542 -59.6537 39.7368 81 74 61
-5.69536 -59.6537 39.7613 81 74 62
-5.6953 -59.6537 39.7858 82 76 63
-5.69523 -59.6537 39.8104 83 77 64
-5.63045 -58.9758 39.3822 83 79 66
-5.63039 -58.9758 39.4065 84 81 68
-5.69504 -59.6537 39.884 85 84 71
-5.69498 -59.6537 39.9085 86 86 73
-5.89831 -61.7842 41.3592 88 89 76
-5.89824 -61.7842 41.3846 89 92 79
-5.89817 -61.7842 41.41 90 95 82
-5.89811 -61.7842 41.4355 92 97 85
-5.89804 -61.7842 41.4609 93 100 88
-5.89798 -61.7842 41.4863 94 103 91
-5.89791 -61.7842 41.5117 96 106 93
-5.89784 -61.7842 41.5371 97 109 96
-5.89778 -61.7842 41.5625 98 111 99
-5.89771 -61.7842 41.5879 100 114 101
-6.35131 -66.5368 44.8144 101 116 104
-6.35124 -66.5368 44.8417 102 118 106
-6.78618 -71.0941 47.9423 103 120 108
-6.7861 -71.0941 47.9716 104 122 109
-6.78603 -71.0941 48.0008 105 123 111
-6.78595 -71.0941 48.03 105 124 112
-6.97173 -73.0884 40.2735 69 83 73
-6.97165 -73.0884 40.3036 69 83 73
-5.87576 -61.7771 40.5968 104 121 108
-5.87569 -61.7771 40.6222 103 119 106
-5.87563 -61.7771 40.6476 102 117 104
-5.87556 -61.7771 40.6731 101 115 102
-5.87549 -61.7771 40.6985 100 112 100
-5.87543 -61.7771 40.7239 99 110 97
-5.87536 -61.7771 40.7493 97 107 95
-5.8753 -61.7771 40.7747 96 105 92
-5.87523 -61.7771 40.8001 95 102 89
-5.87516 -61.7771 40.8255 94 99 86
-5.8751 -61.7771 40.8509 92 96 84
-5.87503 -61.7771 40.8763 91 93 81
-5.87497 -61.7771 40.9018 90 90 78
-5.8749 -61.7771 40.9272 88 87 75
-5.87483 -61.7771 40.9526 87 85 72
-5.87477 -61.7771 40.978 86 82 69
-5.8747 -61.7771 41.0034 85 79 67
-5.87464 -61.7771 41.0288 84 77 64
-5.87457 -61.7771 41.0542 83 75 62
-5.87451 -61.7771 41.0796 82 73 60
-5.80533 -61.0503 40.6215 81 72 59
-5.80526 -61.0503 40.6466 81 71 59
-5.8052 -61.0503 40.6717 80 72 59
-5.80513 -61.0503 40.6968 81 72 60
-5.80507 -61.0503 40.7219 81 74 61
-5.805 -61.0503 40.747 82 75 62
-5.60704 -58.9691 39.3822 83 77 64
-5.60698 -58.9691 39.4064 83 80 67
-5.80481 -61.0503 40.8224 85 82 69
-5.80474 -61.0503 40.8475 86 85 72
-5.87378 -61.7771 41.3592 87 88 75
-5.87371 -61.7771 41.3846 88 90 78
-5.87365 -61.7771 41.41 89 93 81
-5.87358 -61.7771 41.4354 91 96 84
-5.87352 -61.7771 41.4608 92 99 87
-5.87345 -61.7771 41.4862 94 102 90
-5.87338 -61.7771 41.5116 95 105 93
-5.87332 -61.7771 41.537 96 108 95
-5.87325 -61.7771 41.5625 98 111 98
-5.87319 -61.7771 41.5879 99 113 101
-6.01637 -63.2839 42.6282 100 116 103
-6.0163 -63.2839 42.6543 101 118 105
-6.57775 -69.1904 46.6638 102 120 107
-6.57767 -69.1904 46.6922 103 121 109
-6.5776 -69.1904 46.7207 104 123 110
-6.57753 -69.1904 46.7492 104 123 111
-6.32362 -66.5216 35.1267 35 30 26
-6.32355 -66.5216 35.154 35 30 26
-6.84628 -72.0651 39.7141 66 80 70
-6.84621 -72.0651 39.7437 66 80 71
-5.85123 -61.7701 40.5968 103 120 107
-5.85117 -61.7701 40.6222 102 118 105
-5.8511 -61.7701 40.6476 101 116 103
-5.85103 -61.7701 40.673 100 114 101
-5.85097 -61.7701 40.6984 99 111 99
-5.8509 -61.7701 40.7238 98 109 96
-5.85084 -61.7701 40.7492 97 106 94
-5.85077 -61.7701 40.7746 95 103 91
-5.8507 -61.7701 40.8001 94 101 88
-5.85064 -61.7701 40.8255 93 98 85
-5.85057 -61.7701 40.8509 91 95 82
-5.85051 -61.7701 40.8763 90 92 79
-5.85044 -61.7701 40.9017 89 89 76
-5.85038 -61.7701 40.9271 87 86 73
-5.85031 -61.7701 40.9525 86 83 70
-5.85024 -61.7701 40.9779 85 80 67
-5.85018 -61.7701 41.0033 84 77 65
-5.85011 -61.7701 41.0288 83 75 62
-5.85005 -61.7701 41.0542 82 73 60
-5.84998 -61.7701 41.0796 81 71 58
-5.84991 -61.7701 41.105 80 70 57
-5.84985 -61.7701 41.1304 80 69 57
-5.84978 -61.7701 41.1558 80 70 57
-5.84972 -61.7701 41.1812 80 71 58
-5.84965 -61.7701 41.2066 80 72 59
-5.84958 -61.7701 41.232 81 74 61
-5.64781 -59.6401 39.8348 82 76 63
-5.64775 -59.6401 39.8593 83 78 65
-5.84939 -61.7701 41.3083 84 81 68
-5.84932 -61.7701 41.3337 85 83 70
-5.84925 -61.7701 41.3591 86 86 73
-5.84919 -61.7701 41.3845 87 89 76
-5.84912 -61.7701 41.4099 89 92 80
-5.84906 -61.7701 41.4353 90 96 83
-5.84899 -61.7701 41.4607 91 99 86
-5.84892 -61.7701 41.4862 93 102 89
-5.84886 -61.7701 41.5116 94 104 92
-5.84879 -61.7701 41.537 96 107 95
-5.84873 -61.7701 41.5624 97 110 97
-5.84866 -61.7701 41.5878 98 113 100
-5.8486 -61.7701 41.6132 99 115 102
-5.84853 -61.7701 41.6386 100 117 104
-6.38014 -67.3856 45.4517 101 119 106
-6.38007 -67.3856 45.4794 102 121 108
-6.55013 -69.1825 46.7206 103 122 109
-6.55006 -69.1825 46.7491 103 123 110
-6.81767 -72.0569 39.714 63 77 68
-6.81759 -72.0569 39.7437 64 78 68
-5.82671 -61.7631 40.5967 102 119 106
-5.82664 -61.7631 40.6221 101 117 104
-5.82658 -61.7631 40.6475 100 115 102
-5.82651 -61.7631 40.6729 99 113 100
-5.82644 -61.7631 40.6983 98 110 98
-5.82638 -61.7631 40.7238 97 108 95
-5.82631 -61.7631 40.7492 96 105 93
-5.82625 -61.7631 40.7746 94 102 90
-5.82618 -61.7631 40.8 93 99 87
-5.82611 -61.7631 40.8254 92 96 84
-5.82605 -61.7631 40.8508 90 93 81
-5.82598 -61.7631 40.8762 89 90 78
-5.82592 -61.7631 40.9016 88 87 75
-5.82585 -61.7631 40.927 87 84 72
-5.82578 -61.7631 40.9525 85 81 69
-5.82572 -61.7631 40.9779 84 78 66
-5.82565 -61.7631 41.0033 83 76 63
-5.82559 -61.7631 41.0287 82 73 61
-5.82552 -61.7631 41.0541 81 71 59
-5.82545 -61.7631 41.0795 80 69 57
-5.82539 -61.7631 41.1049 79 68 56
-5.82532 -61.7631 41.1303 79 68 55
-5.82526 -61.7631 41.1557 79 68 56
-5.82519 -61.7631 41.1812 79 69 56
-5.82512 -61.7631 41.2066 80 70 58
-5.82506 -61.7631 41.232 80 72 59
-5.75646 -61.0364 40.772 81 74 61
-5.7564 -61.0364 40.7971 82 77 64
-5.82486 -61.7631 41.3082 83 79 67
-5.82479 -61.7631 41.3336 84 82 69
-5.82473 -61.7631 41.359 85 85 72
-5.82466 -61.7631 41.3844 87 88 75
-5.8246 -61.7631 41.4099 88 91 79
-5.82453 -61.7631 41.4353 89 95 82
-5.82447 -61.7631 41.4607 91 98 85
-5.8244 -61.7631 41.4861 92 101 88
-5.82433 -61.7631 41.5115 93 104 91
-5.82427 -61.7631 41.5369 95 107 94
-5.8242 -61.7631 41.5623 96 109 96
-5.82414 -61.7631 41.5877 97 112 99
-5.82407 -61.7631 41.6131 98 114 101
-5.824 -61.7631 41.6386 99 116 104
-6.19254 -65.6721 44.3009 100 118 106
-6.19247 -65.6721 44.328 101 120 107
-6.70137 -71.0698 48.0006 102 121 108
-6.70129 -71.0698 48.0298 102 122 109
-6.78906 -72.0487 39.7139 61 74 65
-6.78898 -72.0487 39.7436 61 75 66
-5.80218 -61.756 40.5966 100 118 105
-5.80212 -61.756 40.622 100 116 103
-5.80205 -61.756 40.6475 99 114 101
-5.80198 -61.756 40.6729 98 112 99
-5.80192 -61.756 40.6983 97 109 97
-5.80185 -61.756 40.7237 96 107 94
-5.80179 -61.756 40.7491 95 104 91
-5.80172 -61.756 40.7745 93 101 89
-5.80165 -61.756 40.7999 92 98 86
-5.80159 -61.756 40.8253 91 95 83
-5.80152 -61.756 40.8507 90 92 80
-5.80146 -61.756 40.8762 88 89 76
-5.80139 -61.756 40.9016 87 86 73
-5.80132 -61.756 40.927 86 83 70
-5.80126 -61.756 40.9524 84 80 67
-5.80119 -61.756 40.9778 83 77 64
-5.80113 -61.756 41.0032 82 74 62
-5.80106 -61.756 41.0286 81 72 59
-5.80099 -61.756 41.054 80 69 57
-5.80093 -61.756 41.0794 79 68 55
-5.80086 -61.756 41.1049 78 67 54
-5.8008 -61.756 41.1303 78 66 54
-5.80073 -61.756 41.1557 78 67 54
-5.80067 -61.756 41.1811 78 68 55
-5.8006 -61.756 41.2065 79 69 56
-5.80053 -61.756 41.2319 79 71 58
-5.80047 -61.756 41.2573 80 73 60
-5.8004 -61.756 41.2827 81 76 63
-5.80034 -61.756 41.3081 82 78 65
-5.80027 -61.756 41.3336 83 81 68
-5.8002 -61.756 41.359 84 84 71
-5.80014 -61.756 41.3844 86 87 74
-5.80007 -61.756 41.4098 87 91 78
-5.80001 -61.756 41.4352 88 94 81
-5.79994 -61.756 41.4606 90 97 84
-5.79987 -61.756 41.486 91 100 87
-5.79981 -61.756 41.5114 92 103 90
-5.79974 -61.756 41.5369 94 106 93
-5.79968 -61.756 41.5623 95 109 96
-5.79961 -61.756 41.5877 96 111 98
-5.79954 -61.756 41.6131 97 114 101
-5.79948 -61.756 41.6385 98 116 103
-6.01421 -64.0433 43.207 99 118 105
-6.01414 -64.0433 43.2334 100 119 106
-6.67314 -71.0617 48.0005 101 120 108
-6.67307 -71.0617 48.0298 101 121 108
-6.76044 -72.0405 39.7139 58 71 62
-6.76037 -72.0405 39.7435 59 72 63
-5.77766 -61.749 40.5966 99 116 104
-5.77759 -61.749 40.622 98 115 102
-5.77752 -61.749 40.6474 97 113 100
-5.77746 -61.749 40.6728 96 110 98
-5.77739 -61.749 40.6982 95 108 95
-5.77733 -61.749 40.7236 94 105 93
-5.77726 -61.749 40.749 93 103 90
-5.77719 -61.749 40.7744 92 100 87
-5.77713 -61.749 40.7999 91 97 84
-5.77706 -61.749 40.8253 90 94 81
-5.777 -61.749 40.8507 88 91 78
-5.77693 -61.749 40.8761 87 88 75
-5.77686 -61.749 40.9015 86 84 72
-5.7768 -61.749 40.9269 85 81 69
-5.77673 -61.749 40.9523 84 78 66
-5.77667 -61.749 40.9777 82 75 63
-5.7766 -61.749 41.0032 81 73 60
-5.77654 -61.749 41.0286 80 70 58
-5.77647 -61.749 41.054 79 68 56
-5.7764 -61.749 41.0794 78 66 54
-5.77634 -61.749 41.1048 78 65 53
-5.77627 -61.749 41.1302 77 65 53
-5.77621 -61.749 41.1556 77 66 53
-5.77614 -61.749 41.181 77 66 54
-5.77607 -61.749 41.2064 78 68 55
-5.77601 -61.749 41.2319 79 70 57
-5.77594 -61.749 41.2573 79 72 59
-5.77588 -61.749 41.2827 80 75 62
-5.77581 -61.749 41.3081 81 77 64
-5.77574 -61.749 41.3335 82 80 67
-5.77568 -61.749 41.3589 84 84 70
-5.77561 -61.749 41.3843 85 87 74
-5.77555 -61.749 41.4097 86 90 77
-5.77548 -61.749 41.4351 88 93 80
-5.77541 -61.749 41.4606 89 96 83
-5.77535 -61.749 41.486 90 99 86
-5.77528 -61.749 41.5114 91 102 89
-5.77522 -61.749 41.5368 93 105 92
-5.77515 -61.749 41.5622 94 108 95
-5.77508 -61.749 41.5876 95 111 98
-5.77502 -61.749 41.613 96 113 100
-5.77495 -61.749 41.6384 97 115 102
-5.84446 -62.4929 42.1658 98 117 104
-5.8444 -62.4929 42.1915 99 119 105
-6.46773 -69.1589 46.7204 100 120 107
-6.46765 -69.1589 46.7489 100 120 107
-6.47792 -69.151 32.2054 80 89 77
-6.47784 -69.151 32.2339 79 86 74
-6.82665 -73.0468 40.2732 55 68 59
-6.82657 -73.0468 40.3032 56 70 60
-5.75313 -61.7419 40.5965 97 114 102
-5.75306 -61.7419 40.6219 96 113 100
-5.753 -61.7419 40.6473 95 111 98
-5.75293 -61.7419 40.6727 95 109 96
-5.75287 -61.7419 40.6982 94 106 94
-5.7528 -61.7419 40.7236 93 104 91
-5.75274 -61.7419 40.749 92 101 89
-5.75267 -61.7419 40.7744 90 98 86
-5.7526 -61.7419 40.7998 89 95 83
-5.75254 -61.7419 40.8252 88 92 80
-5.75247 -61.7419 40.8506 87 89 77
-5.75241 -61.7419 40.876 86 86 74
-5.75234 -61.7419 40.9014 85 83 71
-5.75227 -61.7419 40.9269 83 80 68
-5.75221 -61.7419 40.9523 82 77 65
-5.75214 -61.7419 40.9777 81 74 62
-5.75208 -61.7419 41.0031 80 71 59
-5.75201 -61.7419 41.0285 79 69 57
-5.75194 -61.7419 41.0539 78 67 55
-5.75188 -61.7419 41.0793 77 65 53
-5.75181 -61.7419 41.1047 77 64 52
-5.75175 -61.7419 41.1301 76 64 52
-5.75168 -61.7419 41.1556 76 65 52
-5.75161 -61.7419 41.181 77 66 53
-5.75155 -61.7419 41.2064 77 67 54
-5.75148 -61.7419 41.2318 78 69 56
-5.75142 -61.7419 41.2572 79 71 59
-5.75135 -61.7419 41.2826 79 74 61
-5.75128 -61.7419 41.308 80 77 64
-5.75122 -61.7419 41.3334 82 80 67
-5.75115 -61.7419 41.3588 83 83 70
-5.75109 -61.7419 41.3843 84 86 73
-5.75102 -61.7419 41.4097 85 89 76
-5.75096 -61.7419 41.4351 86 92 79
-5.75089 -61.7419 41.4605 88 96 83
-5.75082 -61.7419 41.4859 89 99 86
-5.75076 -61.7419 41.5113 90 102 89
-5.75069 -61.7419 41.5367 91 105 91
-5.75063 -61.7419 41.5621 93 107 94
-5.75056 -61.7419 41.5875 94 110 97
-5.75049 -61.7419 41.613 95 112 99
-5.75043 -61.7419 41.6384 96 114 101
-5.89061 -63.2478 42.68 97 116 103
-5.89055 -63.2478 42.706 98 117 104
-6.19156 -66.4837 35.1263 33 30 26
-6.19149 -66.4837 35.1537 33 30 26
-6.99466 -75.1555 41.4404 52 65 56
-6.99458 -75.1555 41.4713 54 67 58
-5.72861 -61.7349 40.5964 94 112 99
-5.72854 -61.7349 40.6219 94 110 98
-5.72847 -61.7349 40.6473 93 108 96
-5.72841 -61.7349 40.6727 92 106 94
-5.72834 -61.7349 40.6981 91 104 91
-5.72828 -61.7349 40.7235 90 101 89
-5.72821 -61.7349 40.7489 89 99 87
-5.72814 -61.7349 40.7743 88 96 84
-5.72808 -61.7349 40.7997 87 93 81
-5.72801 -61.7349 40.8251 86 90 78
-5.72795 -61.7349 40.8506 85 87 75
-5.72788 -61.7349 40.876 84 84 72
-5.72781 -61.7349 40.9014 83 81 69
-5.72775 -61.7349 40.9268 82 78 66
-5.72768 -61.7349 40.9522 81 76 63
-5.72762 -61.7349 40.9776 80 73 61
-5.72755 -61.7349 41.003 79 70 58
-5.72748 -61.7349 41.0284 78 68 56
-5.72742 -61.7349 41.0538 77 66 54
-5.72735 -61.7349 41.0793 76 65 52
-5.72729 -61.7349 41.1047 76 64 52
-5.72722 -61.7349 41.1301 75 64 51
-5.72715 -61.7349 41.1555 75 64 52
-5.72709 -61.7349 41.1809 76 65 53
-5.72702 -61.7349 41.2063 76 67 54
-5.72696 -61.7349 41.2317 77 69 56
-5.72689 -61.7349 41.2571 78 71 58
-5.72683 -61.7349 41.2825 78 74 61
-5.72676 -61.7349 41.308 79 76 63
-5.72669 -61.7349 41.3334 80 79 66
-5.72663 -61.7349 41.3588 82 82 69
-5.72656 -61.7349 41.3842 83 86 72
-5.7265 -61.7349 41.4096 84 89 76
-5.72643 -61.7349 41.435 85 92 79
-5.72636 -61.7349 41.4604 86 95 82
-5.7263 -61.7349 41.4858 88 98 85
-5.72623 -61.7349 41.5112 89 101 88
-5.72617 -61.7349 41.5367 90 103 90
-5.7261 -61.7349 41.5621 91 106 93
-5.72603 -61.7349 41.5875 92 108 95
-5.72597 -61.7349 41.6129 93 111 97
-5.7259 -61.7349 41.6383 94 113 99
-6.16629 -66.4837 44.8686 95 114 101
-6.16621 -66.4837 44.896 96 116 102
-6.42283 -69.1352 32.2622 80 85 71
-6.42276 -69.1352 32.2907 79 82 69
-5.70395 -61.7278 40.6472 90 105 93
-5.70388 -61.7278 40.6726 89 103 91
-5.70382 -61.7278 40.698 88 101 89
-5.70375 -61.7278 40.7234 88 99 87
-5.70368 -61.7278 40.7488 87 96 84
-5.70362 -61.7278 40.7743 86 94 82
-5.70355 -61.7278 40.7997 85 91 79
-5.70349 -61.7278 40.8251 84 88 76
-5.70342 -61.7278 40.8505 83 85 73
-5.70335 -61.7278 40.8759 82 82 70
-5.70329 -61.7278 40.9013 81 80 68
-5.70322 -61.7278 40.9267 80 77 65
-5.70316 -61.7278 40.9521 79 74 62
-5.70309 -61.7278 40.9776 78 72 60
-5.70303 -61.7278 41.003 77 69 57
-5.70296 -61.7278 41.0284 76 67 55
-5.70289 -61.7278 41.0538 76 66 53
-5.70283 -61.7278 41.0792 75 64 52
-5.70276 -61.7278 41.1046 75 64 51
-5.7027 -61.7278 41.13 74 64 51
-5.70263 -61.7278 41.1554 75 64 52
-5.70256 -61.7278 41.1808 75 65 53
-5.7025 -61.7278 41.2063 75 67 54
-5.70243 -61.7278 41.2317 76 69 56
-5.70237 -61.7278 41.2571 77 71 58
-5.7023 -61.7278 41.2825 78 74 61
-5.70223 -61.7278 41.3079 79 76 63
-5.70217 -61.7278 41.3333 79 79 66
-5.7021 -61.7278 41.3587 80 82 69
-5.70204 -61.7278 41.3841 81 85 72
-5.70197 -61.7278 41.4095 83 88 75
-5.7019 -61.7278 41.435 84 91 78
-5.70184 -61.7278 41.4604 85 94 81
-5.70177 -61.7278 41.4858 86 97 84
-5.70171 -61.7278 41.5112 87 100 86
-5.70164 -61.7278 41.5366 88 102 89
-5.70157 -61.7278 41.562 89 105 91
-5.70151 -61.7278 41.5874 90 107 94
-5.70144 -61.7278 41.6128 91 109 96
-5.70138 -61.7278 41.6382 92 111 97
-6.30145 -68.2255 46.0493 93 112 99
-6.30138 -68.2255 46.0774 93 113 100
-5.50357 -59.5925 31.5415 32 30 26
-5.50351 -59.5925 31.5661 31 30 26
-5.67942 -61.7208 40.6471 87 102 90
-5.67936 -61.7208 40.6726 86 100 88
-5.67929 -61.7208 40.698 85 98 86
-5.67922 -61.7208 40.7234 85 96 84
-5.67916 -61.7208 40.7488 84 94 82
-5.67909 -61.7208 40.7742 83 91 79
-5.67903 -61.7208 40.7996 82 89 77
-5.67896 -61.7208 40.825 81 86 74
