ply
format ascii 1.0
comment author : Loiseau & Broux
comment object : 3d point Cloud
element vertex 1354
property float x
property float y
property float z
property uchar red
property uchar green
property uchar blue
end_header
-1.48975 -126.597 58.49 90 104 94
-1.48962 -126.597 58.5433 89 103 93
-1.48948 -126.597 58.5967 88 102 93
-1.48934 -126.597 58.6501 88 101 92
-1.4892 -126.597 58.7034 86 100 91
-1.48906 -126.597 58.7568 85 98 89
-1.48892 -126.597 58.8102 83 96 87
-1.48878 -126.597 58.8635 81 93 84
-1.48865 -126.597 58.9169 78 91 82
-1.48851 -126.597 58.9702 76 89 80
-1.48837 -126.597 59.0236 75 87 79
-1.2606 -112.531 76.5147 28 35 28
-1.26048 -112.531 76.5621 28 35 28
-1.37872 -123.509 85.8537 20 27 23
-1.37859 -123.509 85.9058 20 27 23
-1.37845 -123.509 85.9579 20 27 23
-1.37832 -123.509 86.0099 20 27 23
-1.41264 -126.597 88.2135 20 27 23
-1.4125 -126.597 88.2669 20 27 23
-1.37791 -123.509 86.1661 20 27 23
-1.37778 -123.509 86.2182 20 27 23
-1.41208 -126.597 88.427 20 28 23
-1.41194 -126.597 88.4803 20 28 23
-1.4118 -126.597 88.5337 20 28 23
-1.41167 -126.597 88.5871 20 28 23
-1.41153 -126.597 88.6404 20 28 23
-1.41139 -126.597 88.6938 20 28 23
-1.37683 -123.509 86.5826 20 28 23
-1.37669 -123.509 86.6347 20 28 23
-1.41097 -126.597 88.8539 20 28 23
-1.41084 -126.597 88.9073 20 28 23
-1.4107 -126.597 88.9606 20 28 23
-1.41056 -126.597 89.014 20 28 23
-1.41042 -126.597 89.0673 20 28 23
-1.41028 -126.597 89.1207 20 28 24
-1.37548 -123.509 87.1032 20 28 24
-1.37534 -123.509 87.1553 20 28 24
-1.40959 -126.597 89.3875 20 28 24
-1.40945 -126.597 89.4409 21 29 24
-1.28119 -115.088 81.3584 21 29 24
-1.28107 -115.088 81.4069 21 29 24
-1.28094 -115.088 81.4554 21 29 25
-1.28082 -115.088 81.504 21 29 25
-1.28069 -115.088 81.5525 21 29 25
-1.28056 -115.088 81.601 21 30 25
-1.37413 -123.509 87.6238 21 30 26
-1.37399 -123.509 87.6759 22 30 26
-1.37386 -123.509 87.728 22 31 27
-1.37372 -123.509 87.78 23 32 28
-1.40793 -126.597 90.0279 24 34 29
-1.40779 -126.597 90.0813 25 35 30
-1.37332 -123.509 87.9362 26 37 32
-1.37318 -123.509 87.9883 28 39 34
-1.27943 -115.088 82.0376 29 41 35
-1.27931 -115.088 82.0861 31 44 37
-1.27918 -115.088 82.1346 33 46 40
-1.27905 -115.088 82.1831 35 49 42
-1.27893 -115.088 82.2316 37 51 44
-1.2788 -115.088 82.2802 40 54 46
-1.27868 -115.088 82.3287 42 57 49
-1.27855 -115.088 82.3772 44 59 51
-1.46359 -126.582 48.7243 65 74 61
-1.46345 -126.582 48.7777 67 76 62
-1.46331 -126.582 48.831 69 78 63
-1.46317 -126.582 48.8844 71 79 65
-1.46303 -126.582 48.9377 72 81 66
-1.4629 -126.582 48.9911 74 82 67
-1.46276 -126.582 49.0445 75 82 67
-1.46262 -126.582 49.0978 75 83 68
-1.46248 -126.582 49.1512 76 83 68
-1.46234 -126.582 49.2046 76 83 68
-1.4622 -126.582 49.2579 75 83 68
-1.46206 -126.582 49.3113 75 83 69
-1.46193 -126.582 49.3647 75 82 69
-1.46179 -126.582 49.418 74 82 68
-1.46165 -126.582 49.4714 73 81 68
-1.46151 -126.582 49.5247 72 80 68
-1.46137 -126.582 49.5781 70 78 67
-1.46123 -126.582 49.6315 68 76 66
-1.4611 -126.582 49.6848 66 75 65
-1.46096 -126.582 49.7382 65 74 64
-1.46082 -126.582 49.7916 64 73 64
-1.46068 -126.582 49.8449 63 72 63
-1.46054 -126.582 49.8983 62 71 62
-1.4604 -126.582 49.9517 61 71 62
-1.46027 -126.582 50.005 61 70 61
-1.46013 -126.582 50.0584 60 69 60
-1.45999 -126.582 50.1117 60 69 60
-1.45985 -126.582 50.1651 59 69 60
-1.45971 -126.582 50.2185 59 69 60
-1.45957 -126.582 50.2718 59 68 60
-1.32676 -115.075 45.7502 59 68 59
-1.32663 -115.075 45.7987 59 68 59
-1.32651 -115.075 45.8472 59 68 59
-1.32638 -115.075 45.8957 58 67 58
-1.32625 -115.075 45.9442 58 66 58
-1.32613 -115.075 45.9927 57 65 57
-1.326 -115.075 46.0413 55 63 55
-1.32588 -115.075 46.0898 54 62 54
-1.32575 -115.075 46.1383 53 61 53
-1.32563 -115.075 46.1868 52 60 52
-1.32424 -115.075 46.7204 38 46 40
-1.32412 -115.075 46.7689 37 45 40
-1.45639 -126.582 51.4992 37 44 39
-1.45625 -126.582 51.5526 37 44 39
-1.45611 -126.582 51.6059 37 45 40
-1.45597 -126.582 51.6593 38 46 40
-1.34602 -117.751 51.2818 83 95 86
-1.34589 -117.751 51.3314 82 93 84
-1.4467 -126.582 55.2347 81 92 82
-1.44656 -126.582 55.288 80 90 81
-1.44642 -126.582 55.3414 79 88 79
-1.44628 -126.582 55.3947 78 87 78
-1.31468 -115.075 50.4074 77 86 76
-1.31455 -115.075 50.4559 76 84 75
-1.31442 -115.075 50.5044 76 83 74
-1.3143 -115.075 50.5529 75 81 72
-1.34267 -117.751 52.5724 66 75 67
-1.34254 -117.751 52.6221 68 77 69
-1.4431 -126.582 56.6221 70 80 72
-1.44296 -126.582 56.6755 72 83 75
-1.44282 -126.582 56.7288 74 86 78
-1.44268 -126.582 56.7822 77 89 81
-1.44254 -126.582 56.8356 79 92 84
-1.4424 -126.582 56.8889 82 95 87
-1.4406 -126.582 57.5827 100 115 107
-1.44047 -126.582 57.636 100 115 107
-1.44033 -126.582 57.6894 101 116 107
-1.44019 -126.582 57.7427 101 117 108
-1.44005 -126.582 57.7961 102 118 109
-1.43991 -126.582 57.8495 103 119 110
-1.43977 -126.582 57.9028 104 119 110
-1.43964 -126.582 57.9562 104 119 110
-1.4395 -126.582 58.0096 103 118 109
-1.43936 -126.582 58.0629 102 117 108
-1.43922 -126.582 58.1163 101 116 107
-1.43908 -126.582 58.1697 100 115 105
-1.43894 -126.582 58.223 98 113 103
-1.4388 -126.582 58.2764 96 111 101
-1.43867 -126.582 58.3297 94 108 98
-1.43853 -126.582 58.3831 92 106 96
-1.43839 -126.582 58.4365 90 105 95
-1.43825 -126.582 58.4898 89 104 94
-1.43811 -126.582 58.5432 89 103 93
-1.43797 -126.582 58.5966 88 102 93
-1.43784 -126.582 58.6499 88 101 92
-1.4377 -126.582 58.7033 86 100 91
-1.43756 -126.582 58.7567 85 98 89
-1.43742 -126.582 58.81 83 96 87
-1.43728 -126.582 58.8634 80 93 84
-1.43714 -126.582 58.9167 78 91 82
-1.437 -126.582 58.9701 76 89 80
-1.43687 -126.582 59.0235 75 87 79
-1.36169 -126.582 87.9999 20 27 23
-1.36155 -126.582 88.0533 20 27 23
-1.36141 -126.582 88.1067 20 27 23
-1.36127 -126.582 88.16 20 27 23
-1.36113 -126.582 88.2134 20 27 23
-1.36099 -126.582 88.2668 20 27 23
-1.32766 -123.495 86.166 20 27 23
-1.32753 -123.495 86.218 20 28 23
-1.32739 -123.495 86.2701 20 28 23
-1.32726 -123.495 86.3222 20 28 23
-1.32712 -123.495 86.3742 20 28 23
-1.32699 -123.495 86.4263 20 28 23
-1.36002 -126.582 88.6403 20 28 23
-1.35989 -126.582 88.6937 20 28 23
-1.32658 -123.495 86.5825 20 28 23
-1.32645 -123.495 86.6345 20 28 23
-1.32631 -123.495 86.6866 20 28 23
-1.32618 -123.495 86.7387 20 28 23
-1.32604 -123.495 86.7907 20 28 23
-1.32591 -123.495 86.8428 20 28 23
-1.35892 -126.582 89.0672 20 28 23
-1.35878 -126.582 89.1206 20 28 24
-1.35836 -126.582 89.2807 20 28 24
-1.35822 -126.582 89.334 20 28 24
-1.32496 -123.495 87.2072 20 28 24
-1.32483 -123.495 87.2593 21 29 24
-1.23437 -115.075 81.3583 21 29 24
-1.23425 -115.075 81.4068 21 29 24
-1.23412 -115.075 81.4553 21 29 25
-1.23399 -115.075 81.5038 21 29 25
-1.26256 -117.751 83.4489 21 29 25
-1.26243 -117.751 83.4986 21 30 25
-1.35698 -126.582 89.8143 21 30 26
-1.35684 -126.582 89.8677 22 31 26
-1.3567 -126.582 89.921 22 31 27
-1.35656 -126.582 89.9744 23 32 28
-1.35642 -126.582 90.0278 24 34 29
-1.35629 -126.582 90.0811 25 35 30
-1.35615 -126.582 90.1345 26 37 32
-1.35601 -126.582 90.1879 28 39 34
-1.23261 -115.075 82.0375 29 41 36
-1.23248 -115.075 82.086 31 44 38
-1.23236 -115.075 82.1345 33 46 40
-1.23223 -115.075 82.183 35 49 42
-1.20473 -112.518 80.4042 38 51 44
-1.2046 -112.518 80.4516 40 54 46
-1.23185 -115.075 82.3285 42 57 49
-1.23173 -115.075 82.3771 45 60 51
-1.41208 -126.568 48.7242 65 74 60
-1.41195 -126.568 48.7775 67 76 62
-1.41181 -126.568 48.8309 69 77 63
-1.41167 -126.568 48.8842 71 79 64
-1.41153 -126.568 48.9376 72 80 66
-1.41139 -126.568 48.991 74 81 67
-1.41125 -126.568 49.0443 74 82 67
-1.41112 -126.568 49.0977 75 83 68
-1.41098 -126.568 49.1511 75 83 68
-1.41084 -126.568 49.2044 75 83 68
-1.4107 -126.568 49.2578 75 83 68
-1.41056 -126.568 49.3112 75 82 68
-1.41042 -126.568 49.3645 75 82 68
-1.41028 -126.568 49.4179 74 82 68
-1.41015 -126.568 49.4712 73 81 68
-1.41001 -126.568 49.5246 71 79 67
-1.40987 -126.568 49.578 69 77 66
-1.40973 -126.568 49.6313 67 76 66
-1.40959 -126.568 49.6847 66 74 65
-1.40945 -126.568 49.7381 64 73 64
-1.40932 -126.568 49.7914 63 72 63
-1.40918 -126.568 49.8448 62 71 62
-1.40904 -126.568 49.8982 62 71 62
-1.4089 -126.568 49.9515 61 70 61
-1.40876 -126.568 50.0049 60 69 60
-1.40862 -126.568 50.0582 60 69 60
-1.40848 -126.568 50.1116 59 68 59
-1.40835 -126.568 50.165 59 68 59
-1.40821 -126.568 50.2183 59 68 59
-1.40807 -126.568 50.2717 59 68 59
-1.27994 -115.061 45.7501 59 68 59
-1.27981 -115.061 45.7986 58 67 58
-1.27969 -115.061 45.8471 58 67 58
-1.27956 -115.061 45.8956 58 66 58
-1.27943 -115.061 45.9441 57 66 57
-1.27931 -115.061 45.9926 56 65 56
-1.27918 -115.061 46.0411 55 63 55
-1.27906 -115.061 46.0896 54 61 53
-1.27893 -115.061 46.1382 53 60 53
-1.2788 -115.061 46.1867 52 60 52
-1.27742 -115.061 46.7203 38 46 40
-1.27729 -115.061 46.7688 37 45 40
-1.40488 -126.568 51.4991 37 44 39
-1.40475 -126.568 51.5524 37 45 39
-1.40461 -126.568 51.6058 37 45 40
-1.40447 -126.568 51.6592 38 46 41
-1.36143 -123.481 53.7832 83 95 86
-1.3613 -123.481 53.8353 82 93 84
-1.39519 -126.568 55.2345 81 91 83
-1.39505 -126.568 55.2879 79 90 81
-1.39492 -126.568 55.3413 78 88 79
-1.39478 -126.568 55.3946 78 87 78
-1.26785 -115.061 50.4073 77 85 76
-1.26773 -115.061 50.4558 76 84 75
-1.2676 -115.061 50.5043 75 82 73
-1.26748 -115.061 50.5528 74 81 72
-1.39159 -126.568 56.622 66 77 69
-1.39145 -126.568 56.6753 69 80 72
-1.39132 -126.568 56.7287 71 83 75
-1.39118 -126.568 56.7821 74 86 78
-1.39104 -126.568 56.8354 77 89 81
-1.3909 -126.568 56.8888 80 93 85
-1.3891 -126.568 57.5825 99 114 106
-1.38896 -126.568 57.6359 100 115 107
-1.38882 -126.568 57.6893 100 115 107
-1.38869 -126.568 57.7426 101 116 108
-1.38855 -126.568 57.796 102 118 109
-1.38841 -126.568 57.8493 103 119 110
-1.38827 -126.568 57.9027 104 119 110
-1.38813 -126.568 57.9561 103 119 110
-1.38799 -126.568 58.0094 103 118 109
-1.38786 -126.568 58.0628 102 117 108
-1.38772 -126.568 58.1162 101 116 107
-1.38758 -126.568 58.1695 100 115 105
-1.38744 -126.568 58.2229 98 113 103
-1.3873 -126.568 58.2763 96 110 101
-1.38716 -126.568 58.3296 94 108 98
-1.38702 -126.568 58.383 92 106 96
-1.38689 -126.568 58.4363 90 104 95
-1.38675 -126.568 58.4897 89 104 94
-1.38661 -126.568 58.5431 89 103 93
-1.38647 -126.568 58.5964 88 102 93
-1.38633 -126.568 58.6498 87 101 92
-1.38619 -126.568 58.7032 86 100 91
-1.38606 -126.568 58.7565 85 98 89
-1.38592 -126.568 58.8099 83 96 87
-1.38578 -126.568 58.8633 80 93 84
-1.38564 -126.568 58.9166 78 91 82
-1.3855 -126.568 58.97 76 89 80
-1.38536 -126.568 59.0233 75 87 79
-1.31018 -126.568 87.9998 20 27 23
-1.31004 -126.568 88.0532 20 27 23
-1.30991 -126.568 88.1065 20 27 23
-1.30977 -126.568 88.1599 20 27 23
-1.30963 -126.568 88.2133 20 27 23
-1.30949 -126.568 88.2666 20 27 23
-1.218 -117.737 82.1581 20 27 23
-1.21787 -117.737 82.2078 20 27 23
-1.21774 -117.737 82.2574 20 28 23
-1.21762 -117.737 82.3071 20 28 23
-1.21749 -117.737 82.3567 20 28 23
-1.21736 -117.737 82.4063 20 28 23
-1.30852 -126.568 88.6402 20 28 23
-1.30838 -126.568 88.6935 20 28 23
-1.21697 -117.737 82.5553 20 28 23
-1.21684 -117.737 82.6049 20 28 23
-1.21671 -117.737 82.6545 20 28 23
-1.21658 -117.737 82.7042 20 28 23
-1.21646 -117.737 82.7538 20 28 23
-1.21633 -117.737 82.8035 20 28 23
-1.30741 -126.568 89.0671 20 28 23
-1.30727 -126.568 89.1204 20 28 23
-1.30686 -126.568 89.2805 20 28 24
-1.30672 -126.568 89.3339 20 28 24
-1.21543 -117.737 83.1509 20 28 24
-1.2153 -117.737 83.2006 21 29 24
-1.18755 -115.061 81.3582 21 29 24
-1.18742 -115.061 81.4067 21 29 24
-1.1873 -115.061 81.4552 21 29 25
-1.18717 -115.061 81.5037 21 29 25
-1.2739 -123.481 87.5195 21 30 25
-1.27377 -123.481 87.5715 21 30 25
-1.30547 -126.568 89.8142 21 30 26
-1.30534 -126.568 89.8675 22 31 26
-1.3052 -126.568 89.9209 22 31 27
-1.30506 -126.568 89.9743 23 32 28
-1.30492 -126.568 90.0276 24 34 29
-1.30478 -126.568 90.081 25 36 31
-1.30464 -126.568 90.1344 26 37 32
-1.30451 -126.568 90.1877 28 39 34
-1.18579 -115.061 82.0373 30 42 36
-1.18566 -115.061 82.0859 31 44 38
-1.18554 -115.061 82.1344 33 46 40
-1.18541 -115.061 82.1829 36 49 42
-1.10963 -107.717 76.9826 38 52 44
-1.10951 -107.717 77.028 40 54 47
-1.18503 -115.061 82.3284 42 57 49
-1.18491 -115.061 82.3769 45 60 51
-1.36058 -126.553 48.724 65 73 60
-1.36044 -126.553 48.7774 67 75 61
-1.3603 -126.553 48.8308 68 77 63
-1.36017 -126.553 48.8841 70 78 64
-1.36003 -126.553 48.9375 72 79 65
-1.35989 -126.553 48.9908 73 81 66
-1.35975 -126.553 49.0442 74 81 67
-1.35961 -126.553 49.0976 74 82 67
-1.35947 -126.553 49.1509 75 82 68
-1.35934 -126.553 49.2043 75 82 68
-1.3592 -126.553 49.2577 74 82 68
-1.35906 -126.553 49.311 74 82 68
-1.35892 -126.553 49.3644 74 81 68
-1.35878 -126.553 49.4178 73 81 68
-1.35864 -126.553 49.4711 72 80 67
-1.3585 -126.553 49.5245 70 78 67
-1.35837 -126.553 49.5778 68 76 66
-1.35823 -126.553 49.6312 66 75 65
-1.35809 -126.553 49.6846 65 73 64
-1.35795 -126.553 49.7379 64 72 63
-1.35781 -126.553 49.7913 63 71 62
-1.35767 -126.553 49.8447 62 70 62
-1.35754 -126.553 49.898 61 70 61
-1.3574 -126.553 49.9514 60 69 60
-1.35726 -126.553 50.0048 60 68 60
-1.35712 -126.553 50.0581 59 68 59
-1.35698 -126.553 50.1115 59 68 59
-1.35684 -126.553 50.1648 59 67 58
-1.32361 -123.466 48.9934 58 67 58
-1.32348 -123.466 49.0454 58 67 58
-1.23312 -115.048 45.7499 58 67 58
-1.23299 -115.048 45.7985 58 67 58
-1.23286 -115.048 45.847 58 66 58
-1.23274 -115.048 45.8955 58 66 57
-1.23261 -115.048 45.944 57 65 57
-1.23249 -115.048 45.9925 56 64 56
-1.23236 -115.048 46.041 55 63 54
-1.23223 -115.048 46.0895 54 61 53
-1.23211 -115.048 46.138 53 60 52
-1.23198 -115.048 46.1866 52 59 52
-1.2306 -115.048 46.7202 38 46 40
-1.23047 -115.048 46.7687 37 45 40
-1.35338 -126.553 51.4989 37 44 39
-1.35324 -126.553 51.5523 37 45 39
-1.3531 -126.553 51.6057 37 45 40
-1.35297 -126.553 51.659 38 46 41
-1.34397 -126.553 55.1277 83 95 86
-1.34383 -126.553 55.181 82 93 84
-1.34369 -126.553 55.2344 81 91 82
-1.34355 -126.553 55.2878 79 89 81
-1.34341 -126.553 55.3411 78 88 79
-1.34327 -126.553 55.3945 77 86 78
-1.22103 -115.048 50.4071 76 85 76
-1.22091 -115.048 50.4556 75 84 75
-1.22078 -115.048 50.5042 74 82 73
-1.22066 -115.048 50.5527 73 81 72
-1.2466 -117.724 52.6715 63 73 65
-1.24647 -117.724 52.7211 66 76 68
-1.30713 -123.466 55.3449 68 79 71
-1.307 -123.466 55.397 71 83 75
-1.33954 -126.553 56.8353 74 86 78
-1.3394 -126.553 56.8887 77 89 82
-1.33926 -126.553 56.942 80 93 85
-1.33912 -126.553 56.9954 83 96 88
-1.33898 -126.553 57.0488 86 99 91
-1.33884 -126.553 57.1021 88 102 94
-1.3376 -126.553 57.5824 99 114 106
-1.33746 -126.553 57.6358 99 114 106
-1.33732 -126.553 57.6891 100 115 107
-1.33718 -126.553 57.7425 101 116 108
-1.33704 -126.553 57.7958 102 117 109
-1.33691 -126.553 57.8492 103 118 110
-1.33677 -126.553 57.9026 104 119 110
-1.33663 -126.553 57.9559 103 119 110
-1.33649 -126.553 58.0093 103 118 109
-1.33635 -126.553 58.0627 102 117 108
-1.33621 -126.553 58.116 101 116 107
-1.33607 -126.553 58.1694 100 115 105
-1.33594 -126.553 58.2228 98 113 103
-1.3358 -126.553 58.2761 96 110 101
-1.33566 -126.553 58.3295 94 108 98
-1.33552 -126.553 58.3828 92 106 96
-1.33538 -126.553 58.4362 90 104 95
-1.33524 -126.553 58.4896 89 103 94
-1.33511 -126.553 58.5429 89 103 93
-1.33497 -126.553 58.5963 88 102 93
-1.33483 -126.553 58.6497 87 101 92
-1.33469 -126.553 58.703 86 100 91
-1.33455 -126.553 58.7564 85 98 89
-1.33441 -126.553 58.8098 83 96 87
-1.33428 -126.553 58.8631 80 93 84
-1.33414 -126.553 58.9165 78 91 82
-1.334 -126.553 58.9698 76 89 80
-1.33386 -126.553 59.0232 75 87 79
-1.07013 -105.461 65.1506 57 64 50
-1.07001 -105.461 65.1951 58 64 49
-1.19953 -120.527 83.5043 22 30 25
-1.1994 -120.527 83.5551 22 29 25
-1.25868 -126.553 87.9997 20 28 23
-1.25854 -126.553 88.053 20 27 23
-1.1435 -115.048 80.2908 20 27 23
-1.14337 -115.048 80.3393 20 28 23
-1.14325 -115.048 80.3878 20 28 23
-1.14312 -115.048 80.4363 20 28 23
-1.143 -115.048 80.4848 20 28 23
-1.14287 -115.048 80.5333 20 28 23
-1.22636 -123.466 86.4781 20 28 23
-1.22622 -123.466 86.5301 20 28 23
-1.14249 -115.048 80.6789 20 28 23
-1.14237 -115.048 80.7274 20 28 23
-1.14224 -115.048 80.7759 20 28 23
-1.14211 -115.048 80.8244 20 28 23
-1.14199 -115.048 80.8729 20 28 23
-1.14186 -115.048 80.9214 20 28 23
-1.25591 -126.553 89.0669 20 28 23
-1.25577 -126.553 89.1203 20 28 23
-1.14098 -115.048 81.261 20 28 24
-1.14086 -115.048 81.3095 20 29 24
-1.14073 -115.048 81.3581 21 29 24
-1.1406 -115.048 81.4066 21 29 25
-1.14048 -115.048 81.4551 21 29 25
-1.14035 -115.048 81.5036 21 29 25
-1.25425 -126.553 89.7073 21 30 25
-1.25411 -126.553 89.7607 21 30 26
-1.25397 -126.553 89.814 21 30 26
-1.25383 -126.553 89.8674 22 31 26
-1.25369 -126.553 89.9208 22 31 27
-1.25356 -126.553 89.9741 23 33 28
-1.25342 -126.553 90.0275 24 34 29
-1.25328 -126.553 90.0809 25 36 31
-1.25314 -126.553 90.1342 26 37 32
-1.253 -126.553 90.1876 28 40 34
-1.13897 -115.048 82.0372 30 42 36
-1.13884 -115.048 82.0857 32 44 38
-1.11341 -112.491 80.309 34 47 40
-1.11329 -112.491 80.3565 36 49 42
-1.04359 -105.461 75.3787 38 52 45
-1.04348 -105.461 75.4231 40 54 47
-1.11292 -112.491 80.4988 43 57 49
-1.1128 -112.491 80.5462 45 60 52
-1.30908 -126.538 48.7239 64 73 59
-1.30894 -126.538 48.7773 66 74 60
-1.3088 -126.538 48.8306 67 76 62
-1.30866 -126.538 48.884 69 77 63
-1.30852 -126.538 48.9373 70 78 64
-1.30839 -126.538 48.9907 72 80 65
-1.30825 -126.538 49.0441 73 80 66
-1.30811 -126.538 49.0974 73 81 66
-1.30797 -126.538 49.1508 74 81 67
-1.30783 -126.538 49.2042 74 81 67
-1.30769 -126.538 49.2575 73 81 67
-1.30755 -126.538 49.3109 73 81 67
-1.30742 -126.538 49.3643 73 80 67
-1.30728 -126.538 49.4176 72 80 67
-1.30714 -126.538 49.471 71 79 66
-1.307 -126.538 49.5243 69 77 66
-1.30686 -126.538 49.5777 67 75 65
-1.30672 -126.538 49.6311 66 74 64
-1.30659 -126.538 49.6844 64 72 63
-1.30645 -126.538 49.7378 63 71 62
-1.30631 -126.538 49.7912 62 70 61
-1.30617 -126.538 49.8445 61 70 61
-1.30603 -126.538 49.8979 60 69 60
-1.30589 -126.538 49.9513 60 68 60
-1.30576 -126.538 50.0046 59 68 59
-1.30562 -126.538 50.058 59 67 58
-1.30548 -126.538 50.1113 59 67 58
-1.30534 -126.538 50.1647 58 67 58
-1.21414 -117.71 46.7145 58 67 58
-1.21401 -117.71 46.7641 58 67 58
-1.18629 -115.035 45.7498 58 67 58
-1.18617 -115.035 45.7983 58 66 58
-1.18604 -115.035 45.8468 58 66 57
-1.18592 -115.035 45.8954 57 66 57
-1.18579 -115.035 45.9439 57 65 56
-1.18567 -115.035 45.9924 56 64 55
-1.18554 -115.035 46.0409 55 63 54
-1.18541 -115.035 46.0894 54 61 53
-1.18529 -115.035 46.1379 53 60 52
-1.18516 -115.035 46.1864 52 60 52
-1.18378 -115.035 46.7201 38 46 41
-1.18365 -115.035 46.7686 37 45 40
-1.30188 -126.538 51.4988 37 45 39
-1.30174 -126.538 51.5522 37 45 40
-1.3016 -126.538 51.6055 37 45 40
-1.30146 -126.538 51.6589 38 46 41
-1.29246 -126.538 55.1275 83 95 86
-1.29233 -126.538 55.1809 82 93 84
-1.29219 -126.538 55.2343 80 91 82
-1.29205 -126.538 55.2876 79 89 81
-1.29191 -126.538 55.341 78 88 79
-1.29177 -126.538 55.3943 77 86 78
-1.17421 -115.035 50.407 76 85 76
-1.17409 -115.035 50.4555 75 83 75
-1.17396 -115.035 50.504 74 82 73
-1.17383 -115.035 50.5525 73 80 72
-1.19843 -117.71 52.7706 65 76 68
-1.1983 -117.71 52.8203 68 79 71
-1.28803 -126.538 56.8352 70 83 75
-1.28789 -126.538 56.8885 74 86 79
-1.28776 -126.538 56.9419 77 90 82
-1.28762 -126.538 56.9953 80 93 86
-1.28748 -126.538 57.0486 83 97 89
-1.28734 -126.538 57.102 86 100 91
-1.28609 -126.538 57.5823 98 113 105
-1.28596 -126.538 57.6356 99 114 106
-1.28582 -126.538 57.689 100 115 107
-1.28568 -126.538 57.7423 101 116 108
-1.28554 -126.538 57.7957 102 117 109
-1.2854 -126.538 57.8491 103 118 110
-1.28526 -126.538 57.9024 103 119 110
-1.28513 -126.538 57.9558 103 118 110
-1.28499 -126.538 58.0092 103 118 109
-1.28485 -126.538 58.0625 102 117 108
-1.28471 -126.538 58.1159 101 116 107
-1.28457 -126.538 58.1693 100 115 105
-1.28443 -126.538 58.2226 98 112 103
-1.28429 -126.538 58.276 96 110 101
-1.28416 -126.538 58.3293 94 108 98
-1.28402 -126.538 58.3827 92 106 96
-1.28388 -126.538 58.4361 90 104 95
-1.28374 -126.538 58.4894 89 103 94
-1.2836 -126.538 58.5428 89 103 93
-1.28346 -126.538 58.5962 88 102 93
-1.28333 -126.538 58.6495 87 101 92
-1.28319 -126.538 58.7029 86 100 91
-1.28305 -126.538 58.7563 85 98 89
-1.28291 -126.538 58.8096 83 96 87
-1.28277 -126.538 58.863 80 93 84
-1.28263 -126.538 58.9163 78 91 82
-1.28249 -126.538 58.9697 76 89 81
-1.28236 -126.538 59.0231 75 87 79
-0.985676 -103.296 71.7492 21 28 24
-0.985563 -103.296 71.7928 20 28 24
-1.20718 -126.538 87.9995 20 28 23
-1.20704 -126.538 88.0529 20 27 23
-1.09668 -115.035 80.2907 20 27 23
-1.09655 -115.035 80.3392 20 28 23
-1.09643 -115.035 80.3877 20 28 23
-1.0963 -115.035 80.4362 20 28 23
-1.09617 -115.035 80.4847 20 28 23
-1.09605 -115.035 80.5332 20 28 23
-1.12141 -117.71 82.4557 20 28 23
-1.12128 -117.71 82.5054 20 28 23
-1.09567 -115.035 80.6788 20 28 23
-1.09554 -115.035 80.7273 20 28 23
-1.09542 -115.035 80.7758 20 28 23
-1.09529 -115.035 80.8243 20 28 23
-1.09517 -115.035 80.8728 20 28 23
-1.09504 -115.035 80.9213 20 28 23
-1.20441 -126.538 89.0668 20 28 23
-1.20427 -126.538 89.1202 20 28 23
-1.09416 -115.035 81.2609 20 28 24
-1.09403 -115.035 81.3094 20 29 24
-1.09391 -115.035 81.3579 21 29 24
-1.09378 -115.035 81.4064 21 29 25
-1.09366 -115.035 81.455 21 29 25
-1.09353 -115.035 81.5035 21 29 25
-1.20275 -126.538 89.7072 21 30 25
-1.20261 -126.538 89.7605 21 30 26
-1.20247 -126.538 89.8139 21 30 26
-1.20233 -126.538 89.8673 22 31 26
-1.20219 -126.538 89.9206 22 31 27
-1.20205 -126.538 89.974 23 33 28
-1.20191 -126.538 90.0274 24 34 29
-1.20178 -126.538 90.0807 25 36 31
-1.20164 -126.538 90.1341 26 38 32
-1.2015 -126.538 90.1875 28 40 34
-1.09215 -115.035 82.0371 30 42 36
-1.09202 -115.035 82.0856 32 44 38
-1.0222 -107.692 76.8915 34 47 40
-1.02208 -107.692 76.9369 36 49 42
-1.00067 -105.448 75.3786 38 52 45
-1.00056 -105.448 75.423 40 55 47
-1.02173 -107.692 77.0732 43 57 49
-1.02161 -107.692 77.1186 45 60 52
-1.25702 -126.523 48.9372 69 77 63
-1.25688 -126.523 48.9906 71 79 64
-1.25674 -126.523 49.0439 72 79 65
-1.25661 -126.523 49.0973 72 80 66
-1.25647 -126.523 49.1507 73 80 66
-1.25633 -126.523 49.204 73 80 66
-1.25619 -126.523 49.2574 72 80 66
-1.25605 -126.523 49.3108 72 80 66
-1.25591 -126.523 49.3641 72 79 66
-1.25577 -126.523 49.4175 71 79 66
-1.25564 -126.523 49.4708 70 78 65
-1.2555 -126.523 49.5242 68 76 65
-1.25536 -126.523 49.5776 66 74 64
-1.25522 -126.523 49.6309 65 73 63
-1.25508 -126.523 49.6843 63 71 62
-1.25494 -126.523 49.7377 62 70 61
-1.25481 -126.523 49.791 61 70 61
-1.25467 -126.523 49.8444 60 69 60
-1.25453 -126.523 49.8978 60 68 60
-1.25439 -126.523 49.9511 59 68 59
-1.22366 -123.437 48.7849 59 67 58
-1.22353 -123.437 48.8369 59 67 58
-1.22339 -123.437 48.889 58 67 58
-1.22326 -123.437 48.9411 58 67 58
-1.13973 -115.021 45.6527 58 66 58
-1.1396 -115.021 45.7012 58 66 57
-1.13947 -115.021 45.7497 58 66 57
-1.13935 -115.021 45.7982 58 66 57
-1.13922 -115.021 45.8467 58 66 57
-1.1391 -115.021 45.8952 57 65 57
-1.13897 -115.021 45.9437 57 65 56
-1.13884 -115.021 45.9923 56 64 55
-1.13872 -115.021 46.0408 55 62 54
-1.13859 -115.021 46.0893 54 61 53
-1.13847 -115.021 46.1378 53 60 53
-1.13834 -115.021 46.1863 52 60 52
-1.1634 -117.696 47.8065 38 46 41
-1.16327 -117.696 47.8561 38 45 40
-1.25038 -126.523 51.4987 37 45 40
-1.25024 -126.523 51.552 37 45 40
-1.24096 -126.523 55.1274 83 94 85
-1.24082 -126.523 55.1808 82 93 84
-1.24068 -126.523 55.2341 80 91 82
-1.24054 -126.523 55.2875 78 89 80
-1.24041 -126.523 55.3409 77 87 79
-1.24027 -126.523 55.3942 76 86 77
-1.12739 -115.021 50.4069 75 84 76
-1.12726 -115.021 50.4554 74 83 74
-1.12714 -115.021 50.5039 73 81 73
-1.12701 -115.021 50.5524 72 79 71
-1.07548 -110.02 49.329 62 72 65
-1.07536 -110.02 49.3754 64 76 68
-1.23653 -126.523 56.835 67 79 72
-1.23639 -126.523 56.8884 71 83 76
-1.23625 -126.523 56.9418 74 87 79
-1.23611 -126.523 56.9951 77 90 83
-1.23598 -126.523 57.0485 81 94 86
-1.23584 -126.523 57.1019 83 97 89
-1.2357 -126.523 57.1552 86 100 92
-1.23556 -126.523 57.2086 88 103 94
-1.23542 -126.523 57.2619 90 105 96
-1.23528 -126.523 57.3153 92 106 98
-1.23487 -126.523 57.4754 95 110 102
-1.23473 -126.523 57.5288 96 112 103
-1.23459 -126.523 57.5821 98 113 105
-1.23445 -126.523 57.6355 98 114 105
-1.23431 -126.523 57.6889 99 114 106
-1.23418 -126.523 57.7422 100 116 107
-1.23404 -126.523 57.7956 102 117 109
-1.2339 -126.523 57.8489 103 118 110
-1.23376 -126.523 57.9023 103 119 110
-1.23362 -126.523 57.9557 103 118 110
-1.23348 -126.523 58.009 102 118 109
-1.23335 -126.523 58.0624 102 117 108
-1.23321 -126.523 58.1158 101 116 107
-1.23307 -126.523 58.1691 100 115 105
-1.23293 -126.523 58.2225 98 112 103
-1.23279 -126.523 58.2759 96 110 101
-1.23265 -126.523 58.3292 93 108 98
-1.23251 -126.523 58.3826 92 106 96
-1.23238 -126.523 58.4359 90 104 95
-1.23224 -126.523 58.4893 89 103 94
-1.2321 -126.523 58.5427 89 103 93
-1.23196 -126.523 58.596 88 102 93
-1.23182 -126.523 58.6494 87 101 92
-1.23168 -126.523 58.7028 86 100 91
-1.23155 -126.523 58.7561 85 98 89
-1.23141 -126.523 58.8095 83 96 87
-1.23127 -126.523 58.8629 80 93 84
-1.23113 -126.523 58.9162 78 91 82
-1.23099 -126.523 58.9696 76 89 81
-1.23085 -126.523 59.0229 75 87 79
-0.984521 -105.436 65.0615 56 64 50
-0.984405 -105.436 65.1059 58 65 50
-1.03194 -112.465 76.4192 30 38 32
-1.03182 -112.465 76.4666 30 38 32
-0.963291 -105.436 73.2439 21 28 24
-0.963176 -105.436 73.2884 20 28 24
-1.10064 -120.498 83.809 20 28 23
-1.10051 -120.498 83.8598 20 27 23
-1.07427 -117.696 82.1578 20 27 23
-1.07414 -117.696 82.2074 20 28 23
-1.0496 -115.021 80.3876 20 28 23
-1.04948 -115.021 80.4361 20 28 23
-1.04935 -115.021 80.4846 20 28 23
-1.04923 -115.021 80.5331 20 28 23
-1.0491 -115.021 80.5816 20 28 23
-1.04898 -115.021 80.6301 20 28 23
-1.07324 -117.696 82.5549 20 28 23
-1.07311 -117.696 82.6045 20 28 23
-1.07298 -117.696 82.6542 20 28 23
-1.07285 -117.696 82.7038 20 28 23
-1.07273 -117.696 82.7534 20 28 23
-1.0726 -117.696 82.8031 20 28 23
-1.1529 -126.523 89.0667 20 28 23
-1.15276 -126.523 89.12 20 28 23
-1.0717 -117.696 83.1506 20 28 24
-1.07157 -117.696 83.2002 20 29 24
-1.07144 -117.696 83.2499 21 29 24
-1.07131 -117.696 83.2995 21 29 25
-1.07118 -117.696 83.3491 21 29 25
-1.07105 -117.696 83.3988 21 29 25
-1.15124 -126.523 89.707 21 30 25
-1.1511 -126.523 89.7604 21 30 26
-1.15097 -126.523 89.8138 22 30 26
-1.15083 -126.523 89.8671 22 31 26
-1.15069 -126.523 89.9205 22 32 27
-1.15055 -126.523 89.9739 23 33 28
-1.15041 -126.523 90.0272 24 34 29
-1.15027 -126.523 90.0806 25 36 31
-1.15013 -126.523 90.134 27 38 32
-1.15 -126.523 90.1873 28 40 34
-1.04532 -115.021 82.037 30 42 36
-1.0452 -115.021 82.0855 32 44 38
-0.957984 -105.436 75.2895 34 47 40
-0.957868 -105.436 75.334 36 50 43
-0.957753 -105.436 75.3784 38 52 45
-0.957638 -105.436 75.4229 40 55 47
-0.957522 -105.436 75.4674 43 58 50
-0.957407 -105.436 75.5119 45 60 52
-1.20552 -126.508 48.9371 68 77 62
-1.20538 -126.508 48.9904 70 78 63
-1.20524 -126.508 49.0438 71 78 64
-1.2051 -126.508 49.0972 71 79 65
-1.20496 -126.508 49.1505 72 79 65
-1.20483 -126.508 49.2039 72 79 65
-1.20469 -126.508 49.2573 71 79 65
-1.20455 -126.508 49.3106 71 79 65
-1.20441 -126.508 49.364 71 78 65
-1.20427 -126.508 49.4174 70 78 65
-1.20413 -126.508 49.4707 69 76 64
-1.20399 -126.508 49.5241 67 75 64
-1.20386 -126.508 49.5774 65 73 63
-1.20372 -126.508 49.6308 64 72 62
-1.20358 -126.508 49.6842 62 70 61
-1.20344 -126.508 49.7375 61 70 60
-1.2033 -126.508 49.7909 60 69 60
-1.20316 -126.508 49.8443 60 68 59
-1.20303 -126.508 49.8976 59 68 59
-1.20289 -126.508 49.951 59 67 59
-1.11884 -117.682 46.5157 58 67 58
-1.11871 -117.682 46.5653 58 66 58
-1.11858 -117.682 46.615 58 66 57
-1.11845 -117.682 46.6646 58 66 57
-1.0929 -115.008 45.6526 58 66 57
-1.09278 -115.008 45.7011 58 66 57
-1.09265 -115.008 45.7496 58 66 57
-1.09253 -115.008 45.7981 58 66 57
-1.0924 -115.008 45.8466 58 66 57
-1.09227 -115.008 45.8951 57 65 57
-1.09215 -115.008 45.9436 57 65 56
-1.09202 -115.008 45.9921 56 64 55
-1.0919 -115.008 46.0407 55 62 54
-1.09177 -115.008 46.0892 54 61 53
-1.09165 -115.008 46.1377 53 60 53
-1.09152 -115.008 46.1862 52 60 52
-1.1699 -123.423 50.1383 39 46 41
-1.16977 -123.423 50.1904 38 45 40
-1.19887 -126.508 51.4985 37 45 40
-1.19873 -126.508 51.5519 37 45 40
-1.18946 -126.508 55.1273 82 94 85
-1.18932 -126.508 55.1806 81 92 83
-1.18918 -126.508 55.234 80 90 82
-1.18904 -126.508 55.2874 78 88 80
-1.1889 -126.508 55.3407 77 87 78
-1.18876 -126.508 55.3941 76 85 77
-1.08057 -115.008 50.4068 75 84 76
-1.08044 -115.008 50.4553 74 82 74
-1.08032 -115.008 50.5038 72 81 72
-1.08019 -115.008 50.5523 71 79 71
-1.18503 -126.508 56.8349 64 76 69
-1.18489 -126.508 56.8883 67 80 73
-1.18475 -126.508 56.9416 71 83 76
-1.18461 -126.508 56.995 74 87 80
-1.18447 -126.508 57.0484 78 91 83
-1.18433 -126.508 57.1017 81 94 87
-1.1842 -126.508 57.1551 84 97 90
-1.18406 -126.508 57.2084 86 100 92
-1.18392 -126.508 57.2618 88 103 94
-1.18378 -126.508 57.3152 90 104 96
-1.18336 -126.508 57.4753 94 109 101
-1.18323 -126.508 57.5286 96 111 102
-1.18309 -126.508 57.582 97 112 104
-1.18295 -126.508 57.6354 98 113 105
-1.18281 -126.508 57.6887 99 114 106
-1.18267 -126.508 57.7421 100 115 107
-1.18253 -126.508 57.7954 101 117 108
-1.1824 -126.508 57.8488 103 118 109
-1.18226 -126.508 57.9022 103 118 110
-1.18212 -126.508 57.9555 103 118 109
-1.18198 -126.508 58.0089 102 118 109
-1.18184 -126.508 58.0623 102 117 108
-1.1817 -126.508 58.1156 101 116 107
-1.18156 -126.508 58.169 100 114 105
-1.18143 -126.508 58.2224 98 112 103
-1.18129 -126.508 58.2757 96 110 100
-1.18115 -126.508 58.3291 93 108 98
-1.18101 -126.508 58.3824 91 106 96
-1.18087 -126.508 58.4358 90 104 95
-1.18073 -126.508 58.4892 89 103 94
-1.1806 -126.508 58.5425 89 103 93
-1.18046 -126.508 58.5959 88 102 93
-1.18032 -126.508 58.6493 87 101 92
-1.18018 -126.508 58.7026 86 100 91
-1.18004 -126.508 58.756 85 98 89
-1.1799 -126.508 58.8094 83 96 87
-1.17977 -126.508 58.8627 80 93 85
-1.17963 -126.508 58.9161 78 91 82
-1.17949 -126.508 58.9694 76 89 81
-1.17935 -126.508 59.0228 75 87 79
-0.920372 -105.424 73.2438 21 28 24
-0.920256 -105.424 73.2883 20 28 24
-0.960147 -110.007 76.5211 20 28 23
-0.960027 -110.007 76.5675 20 27 23
-1.07643 -123.423 86.1653 20 27 23
-1.07629 -123.423 86.2174 20 28 23
-1.00278 -115.008 80.3874 20 28 23
-1.00266 -115.008 80.436 20 28 23
-1.00253 -115.008 80.4845 20 28 23
-1.00241 -115.008 80.533 20 28 23
-1.00228 -115.008 80.5815 20 28 23
-1.00215 -115.008 80.63 20 28 23
-1.07535 -123.423 86.5818 20 28 23
-1.07521 -123.423 86.6339 20 28 23
-1.07508 -123.423 86.6859 20 28 23
-1.07494 -123.423 86.738 20 28 23
-1.07481 -123.423 86.7901 20 28 23
-1.07467 -123.423 86.8421 20 28 23
-1.1014 -126.508 89.0666 20 28 23
-1.10126 -126.508 89.1199 20 28 23
-1.07373 -123.423 87.2066 20 28 24
-1.07359 -123.423 87.2586 20 29 24
-1.07346 -123.423 87.3107 21 29 24
-1.07332 -123.423 87.3628 21 29 25
-1.07319 -123.423 87.4148 21 29 25
-1.07305 -123.423 87.4669 21 29 25
-1.09974 -126.508 89.7069 21 30 25
-1.0996 -126.508 89.7603 21 30 26
-1.09946 -126.508 89.8136 22 30 26
-1.09932 -126.508 89.867 22 31 26
-1.09918 -126.508 89.9204 22 32 27
-1.09905 -126.508 89.9737 23 33 28
-1.09891 -126.508 90.0271 24 34 29
-1.09877 -126.508 90.0805 25 36 31
-1.09863 -126.508 90.1338 27 38 33
-1.09849 -126.508 90.1872 28 40 34
-0.998504 -115.008 82.0369 30 42 36
-0.998378 -115.008 82.0854 32 45 38
-0.915064 -105.424 75.2894 34 47 41
-0.914949 -105.424 75.3339 36 50 43
-0.914834 -105.424 75.3783 38 52 45
-0.914718 -105.424 75.4228 41 55 47
-0.914603 -105.424 75.4673 43 58 50
-0.914487 -105.424 75.5117 45 60 52
-1.15401 -126.494 48.9369 67 76 62
-1.15388 -126.494 48.9903 69 77 62
-1.15374 -126.494 49.0437 70 77 63
-1.1536 -126.494 49.097 70 78 64
-1.15346 -126.494 49.1504 70 78 64
-1.15332 -126.494 49.2038 70 78 64
-1.15318 -126.494 49.2571 70 78 64
-1.15305 -126.494 49.3105 70 77 64
-1.15291 -126.494 49.3639 69 77 64
-1.15277 -126.494 49.4172 69 76 64
-1.15263 -126.494 49.4706 68 75 63
-1.15249 -126.494 49.5239 66 73 62
-1.15235 -126.494 49.5773 64 72 61
-1.15221 -126.494 49.6307 63 70 61
-1.15208 -126.494 49.684 61 69 60
-1.15194 -126.494 49.7374 60 68 59
-1.1518 -126.494 49.7908 60 68 59
-1.15166 -126.494 49.8441 59 67 59
-1.15152 -126.494 49.8975 59 67 58
-1.15138 -126.494 49.9509 58 67 58
-1.04659 -114.994 45.4584 58 66 58
-1.04646 -114.994 45.5069 58 66 57
-1.04633 -114.994 45.5554 58 66 57
-1.04621 -114.994 45.6039 58 66 57
-1.04608 -114.994 45.6524 58 66 57
-1.04596 -114.994 45.7009 58 66 57
-1.04583 -114.994 45.7495 58 66 57
-1.04571 -114.994 45.798 58 66 57
-1.04558 -114.994 45.8465 58 66 57
-1.04545 -114.994 45.895 57 65 57
-1.04533 -114.994 45.9435 57 65 56
-1.0452 -114.994 45.992 56 64 55
-1.04508 -114.994 46.0405 55 63 54
-1.04495 -114.994 46.089 54 61 53
-1.04482 -114.994 46.1376 53 61 53
-1.0447 -114.994 46.1861 53 60 53
-1.14765 -126.494 51.3917 39 46 41
-1.14751 -126.494 51.445 38 45 40
-1.13795 -126.494 55.1271 82 93 84
-1.13782 -126.494 55.1805 81 92 83
-1.13768 -126.494 55.2339 79 90 81
-1.13754 -126.494 55.2872 78 88 79
-1.1374 -126.494 55.3406 76 86 78
-1.13726 -126.494 55.3939 75 85 76
-1.03375 -114.994 50.4066 74 83 75
-1.03362 -114.994 50.4552 73 82 74
-1.0335 -114.994 50.5037 72 80 72
-1.03337 -114.994 50.5522 70 78 70
-1.10588 -123.408 55.4486 61 72 65
-1.10574 -123.408 55.5006 64 76 69
-1.13325 -126.494 56.9415 68 80 73
-1.13311 -126.494 56.9949 71 84 77
-1.13297 -126.494 57.0482 75 88 81
-1.13283 -126.494 57.1016 78 91 84
-1.13269 -126.494 57.155 81 95 87
-1.13255 -126.494 57.2083 84 98 90
-1.13242 -126.494 57.2617 86 100 92
-1.13228 -126.494 57.315 88 103 94
-1.13186 -126.494 57.4751 93 108 100
-1.13172 -126.494 57.5285 94 110 101
-1.13158 -126.494 57.5819 96 111 103
-1.13145 -126.494 57.6352 97 112 104
-1.13131 -126.494 57.6886 98 113 105
-1.13117 -126.494 57.742 99 115 106
-1.13103 -126.494 57.7953 101 116 108
-1.13089 -126.494 57.8487 102 118 109
-1.13075 -126.494 57.902 103 118 109
-1.13062 -126.494 57.9554 103 118 109
-1.13048 -126.494 58.0088 102 118 109
-1.13034 -126.494 58.0621 102 117 108
-1.1302 -126.494 58.1155 101 116 107
-1.13006 -126.494 58.1689 100 114 105
-1.12992 -126.494 58.2222 98 112 103
-1.12978 -126.494 58.2756 96 110 100
-1.12965 -126.494 58.329 93 108 98
-1.12951 -126.494 58.3823 91 106 96
-1.12937 -126.494 58.4357 90 104 95
-1.12923 -126.494 58.489 89 103 94
-1.12909 -126.494 58.5424 89 103 93
-1.12895 -126.494 58.5958 88 102 93
-1.12882 -126.494 58.6491 87 101 92
-1.12868 -126.494 58.7025 86 100 91
-1.12854 -126.494 58.7559 85 98 89
-1.1284 -126.494 58.8092 83 96 87
-1.12826 -126.494 58.8626 80 93 85
-1.12812 -126.494 58.916 78 91 83
-1.12798 -126.494 58.9693 77 89 81
-1.12785 -126.494 59.0227 75 88 79
-1.12771 -126.494 59.076 73 86 77
-1.12757 -126.494 59.1294 71 84 75
-0.898913 -105.411 64.9723 55 63 50
-0.898797 -105.411 65.0168 56 64 50
-0.940133 -112.439 76.5138 32 41 34
-0.94001 -112.439 76.5613 32 41 34
-0.877452 -105.411 73.2437 21 28 24
-0.877337 -105.411 73.2882 20 28 24
-0.877222 -105.411 73.3326 20 28 23
-0.877106 -105.411 73.3771 20 27 23
-1.05184 -126.494 88.3193 20 27 23
-1.0517 -126.494 88.3727 20 28 23
-0.955962 -114.994 80.3873 20 28 23
-0.955836 -114.994 80.4358 20 28 23
-0.95571 -114.994 80.4843 20 28 23
-0.955584 -114.994 80.5329 20 28 23
-0.977678 -117.669 82.4554 20 28 23
-0.97755 -117.669 82.505 20 28 23
-1.05073 -126.494 88.7462 20 28 23
-1.05059 -126.494 88.7996 20 28 23
-1.04962 -126.494 89.1731 20 28 24
-1.04948 -126.494 89.2265 20 28 24
-1.04907 -126.494 89.3866 20 29 24
-1.04893 -126.494 89.44 20 29 24
-1.04879 -126.494 89.4933 21 29 24
-1.04865 -126.494 89.5467 21 29 25
-1.04851 -126.494 89.6001 21 29 25
-1.04837 -126.494 89.6534 21 29 25
-1.04824 -126.494 89.7068 21 30 25
-1.0481 -126.494 89.7601 21 30 26
-1.04796 -126.494 89.8135 22 30 26
-1.04782 -126.494 89.8669 22 31 27
-1.04768 -126.494 89.9202 22 32 27
-1.04754 -126.494 89.9736 23 33 28
-1.0474 -126.494 90.027 24 34 30
-1.04727 -126.494 90.0803 25 36 31
-1.04713 -126.494 90.1337 27 38 33
-1.04699 -126.494 90.1871 28 40 34
-0.951683 -114.994 82.0367 30 42 36
-0.951557 -114.994 82.0853 32 45 38
-0.872145 -105.411 75.2893 34 47 41
-0.872029 -105.411 75.3338 36 50 43
-0.871914 -105.411 75.3782 38 52 45
-0.871799 -105.411 75.4227 41 55 48
-0.871683 -105.411 75.4672 43 58 50
-0.871568 -105.411 75.5116 46 61 52
-1.10251 -126.479 48.9368 67 75 61
-1.10237 -126.479 48.9902 68 75 61
-1.10223 -126.479 49.0435 68 76 62
-1.1021 -126.479 49.0969 69 77 63
-1.10196 -126.479 49.1503 69 77 63
-1.10182 -126.479 49.2036 69 77 63
-1.10168 -126.479 49.257 69 76 63
-1.10154 -126.479 49.3104 69 76 63
-1.1014 -126.479 49.3637 68 75 63
-1.10126 -126.479 49.4171 67 75 62
-1.10113 -126.479 49.4705 66 73 62
-1.10099 -126.479 49.5238 65 72 61
-1.10085 -126.479 49.5772 63 70 60
-1.10071 -126.479 49.6305 61 69 59
-1.10057 -126.479 49.6839 60 68 59
-1.10043 -126.479 49.7373 59 67 58
-1.1003 -126.479 49.7906 59 67 58
-1.10016 -126.479 49.844 58 67 58
-1.10002 -126.479 49.8974 58 66 58
-1.09988 -126.479 49.9507 58 66 57
-0.999765 -114.981 45.4583 58 66 57
-0.999639 -114.981 45.5068 58 66 57
-0.999514 -114.981 45.5553 58 66 57
-0.999388 -114.981 45.6038 58 66 57
-0.999262 -114.981 45.6523 58 66 57
-0.999136 -114.981 45.7008 58 66 57
-0.99901 -114.981 45.7493 58 66 57
-0.998884 -114.981 45.7978 58 66 57
-0.998758 -114.981 45.8464 58 66 57
-0.998632 -114.981 45.8949 57 65 57
-0.998507 -114.981 45.9434 57 65 56
-0.998381 -114.981 45.9919 56 64 56
-0.998255 -114.981 46.0404 55 63 55
-0.998129 -114.981 46.0889 54 62 54
-0.998003 -114.981 46.1374 53 61 53
-0.997877 -114.981 46.1859 53 61 53
-1.09614 -126.479 51.3915 39 47 41
-1.096 -126.479 51.4449 38 46 41
-1.08645 -126.479 55.127 82 93 84
-1.08631 -126.479 55.1804 80 91 82
-1.08617 -126.479 55.2337 79 89 80
-1.08603 -126.479 55.2871 77 87 79
-1.0859 -126.479 55.3405 76 85 77
-1.08576 -126.479 55.3938 74 84 76
-0.986927 -114.981 50.4065 73 82 74
-0.986801 -114.981 50.455 72 81 73
-0.986675 -114.981 50.5036 71 79 72
-0.986549 -114.981 50.5521 70 77 70
-1.00653 -117.655 52.8694 57 68 62
-1.0064 -117.655 52.9191 61 72 66
-1.08174 -126.479 56.9414 64 77 70
-1.0816 -126.479 56.9947 68 81 74
-1.08147 -126.479 57.0481 72 85 78
-1.08133 -126.479 57.1015 75 88 81
-1.08119 -126.479 57.1548 78 92 84
-1.08105 -126.479 57.2082 82 95 88
-1.08091 -126.479 57.2615 84 98 90
-1.08077 -126.479 57.3149 86 100 92
-1.08036 -126.479 57.475 91 106 98
-1.08022 -126.479 57.5284 93 108 100
-1.08008 -126.479 57.5817 95 110 102
-1.07994 -126.479 57.6351 96 111 103
-1.0798 -126.479 57.6885 97 113 104
-1.07967 -126.479 57.7418 99 114 106
-1.07953 -126.479 57.7952 100 116 107
-1.07939 -126.479 57.8485 102 117 109
-1.07925 -126.479 57.9019 102 118 109
-1.07911 -126.479 57.9553 103 118 109
-1.07897 -126.479 58.0086 102 117 108
-1.07884 -126.479 58.062 102 117 108
-1.0787 -126.479 58.1154 101 116 107
-1.07856 -126.479 58.1687 100 114 105
-1.07842 -126.479 58.2221 98 112 103
-1.07828 -126.479 58.2755 96 110 100
-1.07814 -126.479 58.3288 93 108 98
-1.078 -126.479 58.3822 91 106 96
-1.07787 -126.479 58.4355 90 104 95
-1.07773 -126.479 58.4889 89 103 94
-1.07759 -126.479 58.5423 89 103 93
-1.07745 -126.479 58.5956 88 102 93
-1.07731 -126.479 58.649 87 101 92
-1.07717 -126.479 58.7024 86 100 91
-1.07704 -126.479 58.7557 85 98 89
-1.0769 -126.479 58.8091 83 96 87
-1.07676 -126.479 58.8625 81 94 85
-1.07662 -126.479 58.9158 79 92 83
-1.07648 -126.479 58.9692 77 90 81
-1.07634 -126.479 59.0225 75 88 79
-1.0762 -126.479 59.0759 73 86 77
-1.07607 -126.479 59.1293 71 84 76
-0.890661 -112.426 77.9367 22 30 25
-0.890538 -112.426 77.9842 22 29 25
-0.834533 -105.399 73.2436 21 28 24
-0.834417 -105.399 73.288 20 28 23
-0.834302 -105.399 73.3325 20 28 23
-0.834187 -105.399 73.377 20 27 23
-1.00033 -126.479 88.3192 20 27 23
-1.00019 -126.479 88.3726 20 28 23
-0.909141 -114.981 80.3872 20 28 23
-0.909015 -114.981 80.4357 20 28 23
-0.908889 -114.981 80.4842 20 28 23
-0.908763 -114.981 80.5327 20 28 23
-0.975123 -123.394 86.4774 20 28 23
-0.974988 -123.394 86.5295 20 28 23
-0.999224 -126.479 88.7461 20 28 23
-0.999086 -126.479 88.7995 20 28 23
-0.998117 -126.479 89.173 20 28 24
-0.997978 -126.479 89.2264 20 28 24
-0.997563 -126.479 89.3865 20 29 24
-0.997424 -126.479 89.4398 20 29 24
-0.997286 -126.479 89.4932 21 29 24
-0.997147 -126.479 89.5466 21 29 25
-0.997009 -126.479 89.5999 21 29 25
-0.99687 -126.479 89.6533 21 30 25
-0.996732 -126.479 89.7066 21 30 26
-0.996594 -126.479 89.76 21 30 26
-0.996455 -126.479 89.8134 22 30 26
-0.996317 -126.479 89.8667 22 31 27
-0.996178 -126.479 89.9201 22 32 27
-0.99604 -126.479 89.9735 23 33 28
-0.995901 -126.479 90.0268 24 34 30
-0.995763 -126.479 90.0802 25 36 31
-0.995624 -126.479 90.1336 27 38 33
-0.995486 -126.479 90.1869 28 40 35
-0.904861 -114.981 82.0366 30 42 37
-0.904735 -114.981 82.0851 32 45 39
-0.829225 -105.399 75.2892 34 47 41
-0.82911 -105.399 75.3336 36 50 43
-0.828995 -105.399 75.3781 39 53 45
-0.828879 -105.399 75.4226 41 55 48
-0.828764 -105.399 75.4671 43 58 50
-0.828649 -105.399 75.5115 46 61 53
-1.05184 -126.464 48.6165 58 67 55
-1.0517 -126.464 48.6699 60 68 56
-1.05156 -126.464 48.7232 61 69 57
-1.05142 -126.464 48.7766 62 70 57
-1.05128 -126.464 48.83 63 71 58
-1.05115 -126.464 48.8833 64 72 59
-1.05101 -126.464 48.9367 65 73 60
-1.05087 -126.464 48.99 66 74 60
-1.05073 -126.464 49.0434 67 75 61
-1.05059 -126.464 49.0968 68 75 61
-1.05045 -126.464 49.1501 68 75 62
-1.05032 -126.464 49.2035 68 75 62
-1.05018 -126.464 49.2569 68 75 62
-1.05004 -126.464 49.3102 67 74 61
-1.0499 -126.464 49.3636 67 74 61
-1.04976 -126.464 49.417 66 73 61
-1.04962 -126.464 49.4703 65 72 60
-1.04948 -126.464 49.5237 63 70 59
-1.04935 -126.464 49.577 62 69 59
-1.04921 -126.464 49.6304 60 68 58
-1.04907 -126.464 49.6838 59 67 58
-1.04893 -126.464 49.7371 59 66 57
-1.04879 -126.464 49.7905 58 66 57
-1.04865 -126.464 49.8439 58 66 57
-1.04852 -126.464 49.8972 57 65 57
-1.04838 -126.464 49.9506 57 65 57
-0.975106 -117.641 46.5153 57 65 57
-0.974977 -117.641 46.5649 57 65 57
-0.952692 -114.967 45.5552 58 66 57
-0.952566 -114.967 45.6037 58 66 57
-0.952441 -114.967 45.6522 58 66 57
-0.952315 -114.967 45.7007 58 66 57
-0.952189 -114.967 45.7492 58 66 58
-0.952063 -114.967 45.7977 58 66 58
-0.951937 -114.967 45.8462 58 66 57
-0.951811 -114.967 45.8948 58 66 57
-0.951685 -114.967 45.9433 57 65 57
-0.95156 -114.967 45.9918 56 64 56
-0.951434 -114.967 46.0403 55 63 55
-0.951308 -114.967 46.0888 54 62 54
-0.951182 -114.967 46.1373 54 61 54
-0.951056 -114.967 46.1858 53 61 54
-1.03495 -126.464 55.1269 81 92 83
-1.03481 -126.464 55.1802 80 90 81
-1.03467 -126.464 55.2336 78 88 80
-1.03453 -126.464 55.287 77 86 78
-1.00916 -123.38 53.9906 75 85 77
-1.00903 -123.38 54.0426 74 83 75
-0.940106 -114.967 50.4064 73 82 74
-0.93998 -114.967 50.4549 72 80 72
-0.939854 -114.967 50.5034 70 78 71
-0.939728 -114.967 50.5519 69 77 69
-0.896101 -109.969 49.4213 54 64 59
-0.895981 -109.969 49.4677 57 69 63
-1.00511 -123.38 55.5524 61 73 67
-1.00498 -123.38 55.6045 65 77 71
-1.02996 -126.464 57.048 69 81 74
-1.02982 -126.464 57.1013 72 85 78
-1.02969 -126.464 57.1547 76 89 82
-1.02955 -126.464 57.208 79 92 85
-1.02941 -126.464 57.2614 82 95 88
-1.02927 -126.464 57.3148 84 98 90
-1.02913 -126.464 57.3681 86 100 92
-1.02899 -126.464 57.4215 88 102 94
-1.02885 -126.464 57.4749 90 105 97
-1.02872 -126.464 57.5282 92 107 99
-1.02858 -126.464 57.5816 94 109 101
-1.02844 -126.464 57.635 95 110 102
-1.0283 -126.464 57.6883 96 112 104
-1.02816 -126.464 57.7417 98 113 105
-1.02802 -126.464 57.795 100 115 107
-1.02789 -126.464 57.8484 101 117 108
-1.02775 -126.464 57.9018 102 118 109
-1.02761 -126.464 57.9551 102 118 109
-1.02747 -126.464 58.0085 102 117 108
-1.02733 -126.464 58.0619 102 117 108
-1.02719 -126.464 58.1152 101 116 107
-1.02706 -126.464 58.1686 100 115 105
-1.02692 -126.464 58.222 98 113 103
-1.02678 -126.464 58.2753 96 110 101
-1.02664 -126.464 58.3287 94 108 99
-1.0265 -126.464 58.382 92 106 97
-1.02636 -126.464 58.4354 90 105 95
-1.02622 -126.464 58.4888 89 104 95
-1.02609 -126.464 58.5421 89 103 94
-1.02595 -126.464 58.5955 89 103 93
-1.02581 -126.464 58.6489 88 102 92
-1.02567 -126.464 58.7022 87 100 91
-1.02553 -126.464 58.7556 85 99 89
-1.02539 -126.464 58.809 83 97 87
-1.02526 -126.464 58.8623 81 94 85
-1.02512 -126.464 58.9157 79 92 83
-1.02498 -126.464 58.969 77 90 81
-1.02484 -126.464 59.0224 76 89 80
-1.0247 -126.464 59.0758 74 87 78
-1.02456 -126.464 59.1291 72 85 76
-0.867525 -112.413 69.2087 53 62 49
-0.867402 -112.413 69.2561 55 63 49
-0.918415 -120.442 78.4213 24 34 33
-0.918283 -120.442 78.4721 23 33 32
-0.918151 -120.442 78.5229 23 32 32
-0.918019 -120.442 78.5737 22 32 31
-0.791383 -105.387 73.3324 20 28 23
-0.791267 -105.387 73.3769 20 27 23
-0.926227 -123.38 85.9567 20 27 23
-0.926092 -123.38 86.0088 20 27 23
-0.949105 -126.464 88.2123 20 27 23
-0.948967 -126.464 88.2657 20 27 23
-0.948828 -126.464 88.3191 20 27 23
-0.94869 -126.464 88.3724 20 28 23
-0.86232 -114.967 80.3871 20 28 23
-0.862194 -114.967 80.4356 20 28 23
-0.882116 -117.641 82.3558 20 28 23
-0.881987 -117.641 82.4055 20 28 23
-0.947998 -126.464 88.6392 20 28 23
-0.947859 -126.464 88.6926 20 28 23
-0.947721 -126.464 88.746 20 28 23
-0.947582 -126.464 88.7993 20 28 23
-0.946613 -126.464 89.1729 20 28 24
-0.946475 -126.464 89.2262 20 28 24
-0.945782 -126.464 89.4931 21 29 24
-0.945644 -126.464 89.5464 21 29 25
-0.945506 -126.464 89.5998 21 29 25
-0.945367 -126.464 89.6532 21 30 25
-0.945229 -126.464 89.7065 21 30 26
-0.94509 -126.464 89.7599 22 30 26
-0.944952 -126.464 89.8132 22 31 26
-0.944813 -126.464 89.8666 22 31 27
-0.944675 -126.464 89.92 22 32 27
-0.944536 -126.464 89.9733 23 33 28
-0.944398 -126.464 90.0267 24 34 30
-0.944259 -126.464 90.0801 25 36 31
-0.944121 -126.464 90.1334 27 38 33
-0.943983 -126.464 90.1868 29 40 35
-0.85804 -114.967 82.0365 30 43 37
-0.857914 -114.967 82.085 32 45 39
-0.786306 -105.387 75.2891 34 47 41
-0.786191 -105.387 75.3335 36 50 43
-0.786075 -105.387 75.378 39 53 46
-0.78596 -105.387 75.4225 41 55 48
-0.785845 -105.387 75.4669 43 58 50
-0.785729 -105.387 75.5114 46 61 53
-1.00034 -126.449 48.6164 58 67 55
-1.0002 -126.449 48.6697 59 68 55
-1.00006 -126.449 48.7231 60 69 56
-0.99992 -126.449 48.7765 61 69 56
-0.999781 -126.449 48.8298 62 70 57
-0.999643 -126.449 48.8832 63 71 58
-0.999504 -126.449 48.9365 64 72 58
-0.999366 -126.449 48.9899 65 73 59
-0.999227 -126.449 49.0433 66 73 60
-0.999089 -126.449 49.0966 66 73 60
-0.99895 -126.449 49.15 66 74 60
-0.998812 -126.449 49.2034 66 73 60
-0.998674 -126.449 49.2567 66 73 60
-0.998535 -126.449 49.3101 66 73 60
-0.998397 -126.449 49.3635 65 72 59
-0.998258 -126.449 49.4168 64 71 59
-0.99812 -126.449 49.4702 63 70 58
-0.997981 -126.449 49.5235 62 69 58
-0.997843 -126.449 49.5769 60 67 57
-0.997704 -126.449 49.6303 59 66 57
-0.997566 -126.449 49.6836 58 65 56
-0.997427 -126.449 49.737 57 65 56
-0.997289 -126.449 49.7904 57 65 56
-0.997151 -126.449 49.8437 57 65 56
-0.997012 -126.449 49.8971 57 64 56
-0.996874 -126.449 49.9505 57 64 56
-0.972425 -123.365 48.7842 57 65 56
-0.97229 -123.365 48.8363 57 65 56
-0.905871 -114.954 45.555 57 65 57
-0.905745 -114.954 45.6036 58 66 57
-0.905619 -114.954 45.6521 58 66 57
-0.905494 -114.954 45.7006 58 66 58
-0.905368 -114.954 45.7491 58 66 58
-0.905242 -114.954 45.7976 58 66 58
-0.905116 -114.954 45.8461 58 66 58
-0.90499 -114.954 45.8946 58 66 58
-0.904864 -114.954 45.9431 57 65 57
-0.904738 -114.954 45.9917 57 65 56
-0.904612 -114.954 46.0402 56 63 56
-0.904487 -114.954 46.0887 55 62 55
-0.904361 -114.954 46.1372 54 62 54
-0.904235 -114.954 46.1857 54 62 54
-0.983444 -126.449 55.1267 81 91 82
-0.983305 -126.449 55.1801 79 90 81
-0.983167 -126.449 55.2335 78 88 79
-0.983028 -126.449 55.2868 76 86 77
-0.914316 -117.627 51.4792 75 84 76
-0.914187 -117.627 51.5289 73 82 74
-0.893284 -114.954 50.4063 72 81 73
-0.893159 -114.954 50.4548 71 79 72
-0.893033 -114.954 50.5033 70 78 70
-0.892907 -114.954 50.5518 68 76 69
-0.910452 -117.627 52.9685 58 69 63
-0.910323 -117.627 53.0181 62 74 67
-0.978459 -126.449 57.0478 66 78 71
-0.978321 -126.449 57.1012 69 82 75
-0.978182 -126.449 57.1546 73 86 79
