ply
format ascii 1.0
comment author : Loiseau & Broux
comment object : 3d point Cloud
element vertex 1424
property float x
property float y
property float z
property uchar red
property uchar green
property uchar blue
end_header
7.07735 1.18339 -25.2573 0 255 0
7.06814 1.17072 -25.2245 0 255 0
7.06814 1.15958 -25.2245 0 255 0
7.06814 1.14845 -25.2245 0 255 0
7.06814 1.13731 -25.2245 0 255 0
7.06814 1.12618 -25.2245 0 255 0
7.06814 1.11504 -25.2245 0 255 0
6.97741 1.08973 -24.9007 0 255 0
6.97741 1.07874 -24.9007 0 255 0
6.97741 1.06775 -24.9007 0 255 0
6.97741 1.05676 -24.9007 0 255 0
6.98638 1.04711 -24.9327 0 255 0
6.98638 1.0361 -24.9327 0 255 0
7.07735 1.03845 -25.2573 0 255 0
7.07735 1.0273 -25.2573 0 255 0
7.07735 1.01615 -25.2573 0 255 0
7.07735 1.005 -25.2573 0 255 0
7.07735 0.993846 -25.2573 0 255 0
7.07735 0.982697 -25.2573 0 255 0
7.07735 0.971547 -25.2573 0 255 0
7.07735 0.960398 -25.2573 0 255 0
7.07735 0.949248 -25.2573 0 255 0
7.07735 0.938098 -25.2573 0 255 0
7.07735 0.926949 -25.2573 0 255 0
7.07735 0.915799 -25.2573 0 255 0
7.07735 0.904649 -25.2573 0 255 0
7.07735 0.8935 -25.2573 0 255 0
7.07735 0.88235 -25.2573 0 255 0
7.07735 0.8712 -25.2573 0 255 0
7.07735 0.860051 -25.2573 0 255 0
7.07735 0.848901 -25.2573 0 255 0
7.07735 0.837751 -25.2573 0 255 0
7.07735 0.826602 -25.2573 0 255 0
7.13307 0.821873 -25.4562 0 255 0
7.13307 0.810635 -25.4562 0 255 0
7.22793 0.810028 -25.7947 0 255 0
7.22793 0.798641 -25.7947 0 255 0
7.22793 0.787255 -25.7947 0 255 0
7.22793 0.775868 -25.7947 0 255 0
12.582 -2.83177 -44.9019 0 255 0
12.582 -2.8516 -44.9019 0 255 0
12.582 -2.87142 -44.9019 0 255 0
12.582 -2.89124 -44.9019 0 255 0
12.582 -2.91106 -44.9019 0 255 0
12.582 -2.93088 -44.9019 0 255 0
12.582 -2.9507 -44.9019 0 255 0
12.582 -2.97052 -44.9019 0 255 0
12.582 -2.99035 -44.9019 0 255 0
12.582 -3.01017 -44.9019 0 255 0
12.582 -3.02999 -44.9019 0 255 0
12.582 -3.04981 -44.9019 0 255 0
12.582 -3.06963 -44.9019 0 255 0
12.582 -3.08945 -44.9019 0 255 0
12.582 -3.10928 -44.9019 0 255 0
12.582 -3.1291 -44.9019 0 255 0
12.582 -3.14892 -44.9019 0 255 0
12.582 -3.16874 -44.9019 0 255 0
12.582 -3.18856 -44.9019 0 255 0
12.582 -3.20838 -44.9019 0 255 0
13.5885 -20.5267 -48.4941 0 255 0
13.5885 -20.5481 -48.4941 0 255 0
13.5885 -20.5695 -48.4941 0 255 0
13.5885 -20.5909 -48.4941 0 255 0
13.5885 -20.6123 -48.4941 0 255 0
13.5885 -20.6337 -48.4941 0 255 0
13.5885 -20.698 -48.4941 0 255 0
13.5885 -20.7194 -48.4941 0 255 0
13.5885 -20.7408 -48.4941 0 255 0
13.5885 -20.7622 -48.4941 0 255 0
13.5885 -20.7836 -48.4941 0 255 0
13.5885 -20.805 -48.4941 0 255 0
13.5885 -20.8264 -48.4941 0 255 0
13.5885 -20.8478 -48.4941 0 255 0
13.5885 -20.8692 -48.4941 0 255 0
13.5885 -20.8906 -48.4941 0 255 0
13.5885 -20.912 -48.4941 0 255 0
13.5885 -20.9334 -48.4941 0 255 0
11.443 -19.8816 -40.8371 0 255 0
11.443 -19.8996 -40.8371 0 255 0
11.7142 -20.3898 -41.8052 0 255 0
11.7142 -20.4083 -41.8052 0 255 0
11.7142 -20.4267 -41.8052 0 255 0
11.7142 -20.4452 -41.8052 0 255 0
11.7142 -20.4636 -41.8052 0 255 0
11.7142 -20.4821 -41.8052 0 255 0
11.7142 -20.5005 -41.8052 0 255 0
11.7142 -20.519 -41.8052 0 255 0
11.7142 -20.5374 -41.8052 0 255 0
11.7142 -20.5559 -41.8052 0 255 0
11.7142 -20.5743 -41.8052 0 255 0
11.7142 -20.5928 -41.8052 0 255 0
11.7142 -20.6113 -41.8052 0 255 0
11.7142 -20.6297 -41.8052 0 255 0
11.7142 -20.6482 -41.8052 0 255 0
11.7142 -20.6666 -41.8052 0 255 0
11.7142 -20.6851 -41.8052 0 255 0
11.7142 -20.7035 -41.8052 0 255 0
11.7142 -20.8327 -41.8052 0 255 0
11.7142 -20.8512 -41.8052 0 255 0
11.7142 -20.8696 -41.8052 0 255 0
11.7142 -20.8881 -41.8052 0 255 0
11.7142 -20.9065 -41.8052 0 255 0
11.7142 -20.925 -41.8052 0 255 0
11.7142 -20.9434 -41.8052 0 255 0
11.7142 -20.9619 -41.8052 0 255 0
11.4671 -20.5377 -40.9233 0 255 0
11.4671 -20.5558 -40.9233 0 255 0
11.7142 -21.0173 -41.8052 0 255 0
11.7142 -21.0357 -41.8052 0 255 0
11.7142 -21.0542 -41.8052 0 255 0
11.7142 -21.0726 -41.8052 0 255 0
11.7142 -21.0911 -41.8052 0 255 0
11.7142 -21.1095 -41.8052 0 255 0
11.7142 -21.128 -41.8052 0 255 0
11.7142 -21.1464 -41.8052 0 255 0
11.7142 -21.1649 -41.8052 0 255 0
11.7142 -21.1833 -41.8052 0 255 0
11.7142 -21.2018 -41.8052 0 255 0
11.7142 -21.2203 -41.8052 0 255 0
11.7142 -21.2387 -41.8052 0 255 0
11.7142 -21.2572 -41.8052 0 255 0
11.7142 -21.2756 -41.8052 0 255 0
11.7142 -21.2941 -41.8052 0 255 0
6.92198 1.29031 -24.7419 0 255 0
6.92198 1.27938 -24.7419 0 255 0
6.92198 1.26846 -24.7419 0 255 0
7.02048 1.27543 -25.094 0 255 0
7.02048 1.26436 -25.094 0 255 0
7.06618 1.26144 -25.2573 0 255 0
7.06618 1.25029 -25.2573 0 255 0
7.06618 1.23914 -25.2573 0 255 0
7.06618 1.22799 -25.2573 0 255 0
7.06618 1.21684 -25.2573 0 255 0
7.06618 1.20569 -25.2573 0 255 0
7.06618 1.19454 -25.2573 0 255 0
7.06618 1.18339 -25.2573 0 255 0
7.06618 1.17224 -25.2573 0 255 0
7.06618 1.16109 -25.2573 0 255 0
7.06618 1.14994 -25.2573 0 255 0
7.06618 1.13879 -25.2573 0 255 0
7.06618 1.12764 -25.2573 0 255 0
7.06618 1.11649 -25.2573 0 255 0
7.02048 1.09819 -25.094 0 255 0
7.02048 1.08712 -25.094 0 255 0
7.02048 1.07604 -25.094 0 255 0
7.02048 1.06496 -25.094 0 255 0
7.01141 1.05252 -25.0615 0 255 0
7.01141 1.04146 -25.0615 0 255 0
7.06618 1.03845 -25.2573 0 255 0
7.06618 1.0273 -25.2573 0 255 0
7.06618 1.01615 -25.2573 0 255 0
7.06618 1.005 -25.2573 0 255 0
7.06618 0.993846 -25.2573 0 255 0
7.06618 0.982697 -25.2573 0 255 0
7.06618 0.971547 -25.2573 0 255 0
7.06618 0.960398 -25.2573 0 255 0
7.06618 0.949248 -25.2573 0 255 0
7.06618 0.938098 -25.2573 0 255 0
7.06618 0.926949 -25.2573 0 255 0
7.06618 0.915799 -25.2573 0 255 0
7.06618 0.904649 -25.2573 0 255 0
7.06618 0.8935 -25.2573 0 255 0
7.06618 0.88235 -25.2573 0 255 0
7.06618 0.8712 -25.2573 0 255 0
7.06618 0.860051 -25.2573 0 255 0
7.06618 0.848901 -25.2573 0 255 0
7.06618 0.837751 -25.2573 0 255 0
7.06618 0.826602 -25.2573 0 255 0
7.16886 0.827301 -25.6243 0 255 0
7.16886 0.81599 -25.6243 0 255 0
7.21653 0.810028 -25.7947 0 255 0
7.21653 0.798641 -25.7947 0 255 0
7.21653 0.787255 -25.7947 0 255 0
7.21653 0.775868 -25.7947 0 255 0
12.5621 -2.75249 -44.9019 0 255 0
12.5621 -2.77231 -44.9019 0 255 0
12.5621 -2.79213 -44.9019 0 255 0
12.5621 -2.81195 -44.9019 0 255 0
12.5621 -2.83177 -44.9019 0 255 0
12.5621 -2.8516 -44.9019 0 255 0
12.5621 -2.87142 -44.9019 0 255 0
12.5621 -2.89124 -44.9019 0 255 0
12.5621 -2.91106 -44.9019 0 255 0
12.5621 -2.93088 -44.9019 0 255 0
12.5621 -2.9507 -44.9019 0 255 0
12.5621 -2.97052 -44.9019 0 255 0
12.5621 -2.99035 -44.9019 0 255 0
12.5621 -3.01017 -44.9019 0 255 0
12.5621 -3.02999 -44.9019 0 255 0
12.5621 -3.04981 -44.9019 0 255 0
12.5621 -3.06963 -44.9019 0 255 0
12.5621 -3.08945 -44.9019 0 255 0
12.5621 -3.10928 -44.9019 0 255 0
12.5621 -3.1291 -44.9019 0 255 0
12.5621 -3.14892 -44.9019 0 255 0
12.5621 -3.16874 -44.9019 0 255 0
12.5621 -3.18856 -44.9019 0 255 0
12.5621 -3.20838 -44.9019 0 255 0
13.5332 -20.4755 -48.3731 0 255 0
13.5332 -20.4969 -48.3731 0 255 0
13.5671 -20.5695 -48.4941 0 255 0
13.5671 -20.5909 -48.4941 0 255 0
13.5671 -20.6123 -48.4941 0 255 0
13.5671 -20.6337 -48.4941 0 255 0
13.3996 -20.4001 -47.8954 0 255 0
13.3996 -20.4213 -47.8954 0 255 0
13.5671 -20.698 -48.4941 0 255 0
13.5671 -20.7194 -48.4941 0 255 0
13.5671 -20.7408 -48.4941 0 255 0
13.5671 -20.7622 -48.4941 0 255 0
13.5671 -20.7836 -48.4941 0 255 0
13.5671 -20.805 -48.4941 0 255 0
13.5671 -20.8264 -48.4941 0 255 0
13.5671 -20.8478 -48.4941 0 255 0
13.5671 -20.8692 -48.4941 0 255 0
13.5671 -20.8906 -48.4941 0 255 0
13.5671 -20.912 -48.4941 0 255 0
13.5671 -20.9334 -48.4941 0 255 0
11.5711 -20.1359 -41.3595 0 255 0
11.5711 -20.1542 -41.3595 0 255 0
11.6958 -20.3898 -41.8052 0 255 0
11.6958 -20.4083 -41.8052 0 255 0
11.6958 -20.4267 -41.8052 0 255 0
11.6958 -20.4452 -41.8052 0 255 0
11.6958 -20.4636 -41.8052 0 255 0
11.6958 -20.4821 -41.8052 0 255 0
11.6958 -20.5005 -41.8052 0 255 0
11.6958 -20.519 -41.8052 0 255 0
11.6958 -20.5374 -41.8052 0 255 0
11.6958 -20.5559 -41.8052 0 255 0
11.6958 -20.5743 -41.8052 0 255 0
11.6958 -20.5928 -41.8052 0 255 0
11.6958 -20.6113 -41.8052 0 255 0
11.6958 -20.6297 -41.8052 0 255 0
11.6958 -20.6482 -41.8052 0 255 0
11.6958 -20.6666 -41.8052 0 255 0
11.6706 -20.6406 -41.7153 0 255 0
11.6706 -20.659 -41.7153 0 255 0
11.3295 -20.1446 -40.4961 0 255 0
11.3295 -20.1625 -40.4961 0 255 0
11.6958 -20.8327 -41.8052 0 255 0
11.6958 -20.8512 -41.8052 0 255 0
11.6958 -20.8696 -41.8052 0 255 0
11.6958 -20.8881 -41.8052 0 255 0
11.6706 -20.8616 -41.7153 0 255 0
11.6706 -20.88 -41.7153 0 255 0
11.6958 -20.9434 -41.8052 0 255 0
11.6958 -20.9619 -41.8052 0 255 0
11.5711 -20.7567 -41.3595 0 255 0
11.5711 -20.7749 -41.3595 0 255 0
11.6958 -21.0173 -41.8052 0 255 0
11.6958 -21.0357 -41.8052 0 255 0
11.6958 -21.0542 -41.8052 0 255 0
11.6958 -21.0726 -41.8052 0 255 0
11.6958 -21.0911 -41.8052 0 255 0
11.6958 -21.1095 -41.8052 0 255 0
11.6958 -21.128 -41.8052 0 255 0
11.6958 -21.1464 -41.8052 0 255 0
11.6958 -21.1649 -41.8052 0 255 0
11.6958 -21.1833 -41.8052 0 255 0
11.6958 -21.2018 -41.8052 0 255 0
11.6958 -21.2203 -41.8052 0 255 0
11.6958 -21.2387 -41.8052 0 255 0
11.6958 -21.2572 -41.8052 0 255 0
6.91104 1.29031 -24.7419 0 255 0
6.91104 1.27938 -24.7419 0 255 0
6.91104 1.26846 -24.7419 0 255 0
7.04585 1.28207 -25.2245 0 255 0
7.04585 1.27093 -25.2245 0 255 0
7.05502 1.26144 -25.2573 0 255 0
7.05502 1.25029 -25.2573 0 255 0
7.05502 1.23914 -25.2573 0 255 0
7.05502 1.22799 -25.2573 0 255 0
7.05502 1.21684 -25.2573 0 255 0
7.05502 1.20569 -25.2573 0 255 0
7.05502 1.19454 -25.2573 0 255 0
7.05502 1.18339 -25.2573 0 255 0
7.05502 1.17224 -25.2573 0 255 0
7.05502 1.16109 -25.2573 0 255 0
7.05502 1.14994 -25.2573 0 255 0
7.05502 1.13879 -25.2573 0 255 0
7.05502 1.12764 -25.2573 0 255 0
7.05502 1.11649 -25.2573 0 255 0
7.04585 1.10391 -25.2245 0 255 0
7.04585 1.09277 -25.2245 0 255 0
7.04585 1.08164 -25.2245 0 255 0
7.04585 1.0705 -25.2245 0 255 0
7.00033 1.05252 -25.0615 0 255 0
7.00033 1.04146 -25.0615 0 255 0
7.05502 1.03845 -25.2573 0 255 0
7.05502 1.0273 -25.2573 0 255 0
7.05502 1.01615 -25.2573 0 255 0
7.05502 1.005 -25.2573 0 255 0
7.05502 0.993846 -25.2573 0 255 0
7.05502 0.982697 -25.2573 0 255 0
7.05502 0.971547 -25.2573 0 255 0
7.05502 0.960398 -25.2573 0 255 0
7.05502 0.949248 -25.2573 0 255 0
7.05502 0.938098 -25.2573 0 255 0
7.05502 0.926949 -25.2573 0 255 0
7.05502 0.915799 -25.2573 0 255 0
7.05502 0.904649 -25.2573 0 255 0
7.05502 0.8935 -25.2573 0 255 0
7.05502 0.88235 -25.2573 0 255 0
7.05502 0.8712 -25.2573 0 255 0
7.05502 0.860051 -25.2573 0 255 0
7.05502 0.848901 -25.2573 0 255 0
7.05502 0.837751 -25.2573 0 255 0
7.05502 0.826602 -25.2573 0 255 0
7.19556 0.831696 -25.7605 0 255 0
7.19556 0.820324 -25.7605 0 255 0
7.20513 0.810028 -25.7947 0 255 0
7.20513 0.798641 -25.7947 0 255 0
7.20513 0.787255 -25.7947 0 255 0
7.20513 0.775868 -25.7947 0 255 0
12.5423 -2.75249 -44.9019 0 255 0
12.5423 -2.77231 -44.9019 0 255 0
12.5423 -2.79213 -44.9019 0 255 0
12.5423 -2.81195 -44.9019 0 255 0
12.5423 -2.83177 -44.9019 0 255 0
12.5423 -2.8516 -44.9019 0 255 0
12.5423 -2.87142 -44.9019 0 255 0
12.5423 -2.89124 -44.9019 0 255 0
12.5423 -2.91106 -44.9019 0 255 0
12.5423 -2.93088 -44.9019 0 255 0
12.5423 -2.9507 -44.9019 0 255 0
12.5423 -2.97052 -44.9019 0 255 0
12.5423 -2.99035 -44.9019 0 255 0
12.5423 -3.01017 -44.9019 0 255 0
12.5423 -3.02999 -44.9019 0 255 0
12.5423 -3.04981 -44.9019 0 255 0
12.5423 -3.06963 -44.9019 0 255 0
12.5423 -3.08945 -44.9019 0 255 0
12.5423 -3.10928 -44.9019 0 255 0
12.5423 -3.1291 -44.9019 0 255 0
12.5423 -3.14892 -44.9019 0 255 0
12.5423 -3.16874 -44.9019 0 255 0
12.5423 -3.18856 -44.9019 0 255 0
12.5423 -3.20838 -44.9019 0 255 0
13.3784 -20.2733 -47.8954 0 255 0
13.3784 -20.2944 -47.8954 0 255 0
13.5456 -20.5695 -48.4941 0 255 0
13.5456 -20.5909 -48.4941 0 255 0
13.5456 -20.6123 -48.4941 0 255 0
13.5456 -20.6337 -48.4941 0 255 0
13.5119 -20.6036 -48.3731 0 255 0
13.5119 -20.625 -48.3731 0 255 0
13.5456 -20.698 -48.4941 0 255 0
13.5456 -20.7194 -48.4941 0 255 0
13.5456 -20.7408 -48.4941 0 255 0
13.5456 -20.7622 -48.4941 0 255 0
13.5456 -20.7836 -48.4941 0 255 0
13.5456 -20.805 -48.4941 0 255 0
13.5456 -20.8264 -48.4941 0 255 0
13.5456 -20.8478 -48.4941 0 255 0
13.5456 -20.8692 -48.4941 0 255 0
13.5456 -20.8906 -48.4941 0 255 0
13.5456 -20.912 -48.4941 0 255 0
13.5456 -20.9334 -48.4941 0 255 0
13.3784 -21.2459 -47.8954 0 255 0
13.3784 -21.267 -47.8954 0 255 0
11.6522 -20.3091 -41.7153 0 255 0
11.6522 -20.3275 -41.7153 0 255 0
11.6773 -20.3898 -41.8052 0 255 0
11.6773 -20.4083 -41.8052 0 255 0
11.6773 -20.4267 -41.8052 0 255 0
11.6773 -20.4452 -41.8052 0 255 0
11.6773 -20.4636 -41.8052 0 255 0
11.6773 -20.4821 -41.8052 0 255 0
11.6773 -20.5005 -41.8052 0 255 0
11.6773 -20.519 -41.8052 0 255 0
11.6773 -20.5374 -41.8052 0 255 0
11.6773 -20.5559 -41.8052 0 255 0
11.6773 -20.5743 -41.8052 0 255 0
11.6773 -20.5928 -41.8052 0 255 0
11.6773 -20.6113 -41.8052 0 255 0
11.6773 -20.6297 -41.8052 0 255 0
11.6773 -20.6482 -41.8052 0 255 0
11.6773 -20.6666 -41.8052 0 255 0
11.5528 -20.4646 -41.3595 0 255 0
11.5528 -20.4828 -41.3595 0 255 0
11.4069 -20.3142 -40.8371 0 255 0
11.4069 -20.3322 -40.8371 0 255 0
11.6773 -20.8327 -41.8052 0 255 0
11.6773 -20.8512 -41.8052 0 255 0
11.6773 -20.8696 -41.8052 0 255 0
11.6773 -20.8881 -41.8052 0 255 0
11.5528 -20.6836 -41.3595 0 255 0
11.5528 -20.7019 -41.3595 0 255 0
11.6773 -20.9434 -41.8052 0 255 0
11.6773 -20.9619 -41.8052 0 255 0
11.6522 -20.9352 -41.7153 0 255 0
11.6522 -20.9536 -41.7153 0 255 0
11.6773 -21.0173 -41.8052 0 255 0
11.6773 -21.0357 -41.8052 0 255 0
11.6773 -21.0542 -41.8052 0 255 0
11.6773 -21.0726 -41.8052 0 255 0
11.6773 -21.0911 -41.8052 0 255 0
11.6773 -21.1095 -41.8052 0 255 0
11.6773 -21.128 -41.8052 0 255 0
11.6773 -21.1464 -41.8052 0 255 0
11.6773 -21.1649 -41.8052 0 255 0
11.6773 -21.1833 -41.8052 0 255 0
11.6773 -21.2018 -41.8052 0 255 0
11.6773 -21.2203 -41.8052 0 255 0
11.6773 -21.2387 -41.8052 0 255 0
11.6773 -21.2572 -41.8052 0 255 0
6.9001 1.29031 -24.7419 0 255 0
6.90892 1.28102 -24.7735 0 255 0
6.90892 1.27008 -24.7735 0 255 0
7.04386 1.28374 -25.2573 0 255 0
7.04386 1.27259 -25.2573 0 255 0
7.04386 1.26144 -25.2573 0 255 0
7.04386 1.25029 -25.2573 0 255 0
7.04386 1.23914 -25.2573 0 255 0
7.04386 1.22799 -25.2573 0 255 0
7.04386 1.21684 -25.2573 0 255 0
7.04386 1.20569 -25.2573 0 255 0
7.04386 1.19454 -25.2573 0 255 0
7.04386 1.18339 -25.2573 0 255 0
7.04386 1.17224 -25.2573 0 255 0
7.04386 1.16109 -25.2573 0 255 0
7.04386 1.14994 -25.2573 0 255 0
7.04386 1.13879 -25.2573 0 255 0
7.04386 1.12764 -25.2573 0 255 0
7.04386 1.11649 -25.2573 0 255 0
7.04386 1.10534 -25.2573 0 255 0
7.04386 1.09419 -25.2573 0 255 0
7.04386 1.08304 -25.2573 0 255 0
7.04386 1.07189 -25.2573 0 255 0
6.95332 1.04711 -24.9327 0 255 0
6.95332 1.0361 -24.9327 0 255 0
7.04386 1.03845 -25.2573 0 255 0
7.04386 1.0273 -25.2573 0 255 0
7.04386 1.01615 -25.2573 0 255 0
7.04386 1.005 -25.2573 0 255 0
7.04386 0.993846 -25.2573 0 255 0
7.04386 0.982697 -25.2573 0 255 0
7.04386 0.971547 -25.2573 0 255 0
7.04386 0.960398 -25.2573 0 255 0
7.04386 0.949248 -25.2573 0 255 0
7.04386 0.938098 -25.2573 0 255 0
7.04386 0.926949 -25.2573 0 255 0
7.04386 0.915799 -25.2573 0 255 0
7.04386 0.904649 -25.2573 0 255 0
7.04386 0.8935 -25.2573 0 255 0
7.04386 0.88235 -25.2573 0 255 0
7.04386 0.8712 -25.2573 0 255 0
7.04386 0.860051 -25.2573 0 255 0
7.04386 0.848901 -25.2573 0 255 0
7.05304 0.838844 -25.2903 0 255 0
7.05304 0.827679 -25.2903 0 255 0
7.19373 0.832802 -25.7947 0 255 0
7.19373 0.821415 -25.7947 0 255 0
7.19373 0.810028 -25.7947 0 255 0
7.19373 0.798641 -25.7947 0 255 0
7.19373 0.787255 -25.7947 0 255 0
7.19373 0.775868 -25.7947 0 255 0
12.5224 -2.75249 -44.9019 0 255 0
12.5224 -2.77231 -44.9019 0 255 0
12.5224 -2.79213 -44.9019 0 255 0
12.5224 -2.81195 -44.9019 0 255 0
12.5224 -2.83177 -44.9019 0 255 0
12.5224 -2.8516 -44.9019 0 255 0
12.5224 -2.87142 -44.9019 0 255 0
12.5224 -2.89124 -44.9019 0 255 0
12.5224 -2.91106 -44.9019 0 255 0
12.5224 -2.93088 -44.9019 0 255 0
12.5224 -2.9507 -44.9019 0 255 0
12.5224 -2.97052 -44.9019 0 255 0
12.5224 -2.99035 -44.9019 0 255 0
12.5224 -3.01017 -44.9019 0 255 0
12.5224 -3.02999 -44.9019 0 255 0
12.5224 -3.04981 -44.9019 0 255 0
12.5224 -3.06963 -44.9019 0 255 0
12.5224 -3.08945 -44.9019 0 255 0
12.5224 -3.10928 -44.9019 0 255 0
12.5224 -3.1291 -44.9019 0 255 0
12.5224 -3.14892 -44.9019 0 255 0
12.5224 -3.16874 -44.9019 0 255 0
12.5224 -3.18856 -44.9019 0 255 0
12.5224 -3.20838 -44.9019 0 255 0
13.4905 -20.5182 -48.3731 0 255 0
13.4905 -20.5396 -48.3731 0 255 0
13.5242 -20.6123 -48.4941 0 255 0
13.5242 -20.6337 -48.4941 0 255 0
13.4905 -20.6036 -48.3731 0 255 0
13.4905 -20.625 -48.3731 0 255 0
13.5242 -20.698 -48.4941 0 255 0
13.5242 -20.7194 -48.4941 0 255 0
13.5242 -20.7408 -48.4941 0 255 0
13.5242 -20.7622 -48.4941 0 255 0
13.5242 -20.7836 -48.4941 0 255 0
13.5242 -20.805 -48.4941 0 255 0
13.5242 -20.8264 -48.4941 0 255 0
13.5242 -20.8478 -48.4941 0 255 0
13.5242 -20.8692 -48.4941 0 255 0
13.5242 -20.8906 -48.4941 0 255 0
13.5242 -20.912 -48.4941 0 255 0
13.5242 -20.9334 -48.4941 0 255 0
11.6337 -20.3091 -41.7153 0 255 0
11.6337 -20.3275 -41.7153 0 255 0
11.6337 -20.346 -41.7153 0 255 0
11.6337 -20.3644 -41.7153 0 255 0
11.6337 -20.3828 -41.7153 0 255 0
11.6337 -20.4012 -41.7153 0 255 0
11.6588 -20.4636 -41.8052 0 255 0
11.6588 -20.4821 -41.8052 0 255 0
11.6588 -20.5005 -41.8052 0 255 0
11.6588 -20.519 -41.8052 0 255 0
11.6588 -20.5374 -41.8052 0 255 0
11.6588 -20.5559 -41.8052 0 255 0
11.6588 -20.5743 -41.8052 0 255 0
11.6588 -20.5928 -41.8052 0 255 0
11.6588 -20.6113 -41.8052 0 255 0
11.6588 -20.6297 -41.8052 0 255 0
11.6588 -20.6482 -41.8052 0 255 0
11.6588 -20.6666 -41.8052 0 255 0
11.4128 -20.2487 -40.9233 0 255 0
11.4128 -20.2667 -40.9233 0 255 0
11.2937 -20.1088 -40.4961 0 255 0
11.2937 -20.1267 -40.4961 0 255 0
11.5345 -20.5741 -41.3595 0 255 0
11.5345 -20.5924 -41.3595 0 255 0
11.6337 -20.7879 -41.7153 0 255 0
11.6337 -20.8063 -41.7153 0 255 0
11.6337 -20.8247 -41.7153 0 255 0
11.6337 -20.8432 -41.7153 0 255 0
11.3888 -20.4224 -40.8371 0 255 0
11.3888 -20.4404 -40.8371 0 255 0
11.6588 -20.9434 -41.8052 0 255 0
11.6588 -20.9619 -41.8052 0 255 0
11.6588 -20.9803 -41.8052 0 255 0
11.6588 -20.9988 -41.8052 0 255 0
11.6588 -21.0173 -41.8052 0 255 0
11.6588 -21.0357 -41.8052 0 255 0
11.6588 -21.0542 -41.8052 0 255 0
11.6588 -21.0726 -41.8052 0 255 0
11.6588 -21.0911 -41.8052 0 255 0
11.6588 -21.1095 -41.8052 0 255 0
11.6588 -21.128 -41.8052 0 255 0
11.6588 -21.1464 -41.8052 0 255 0
11.6588 -21.1649 -41.8052 0 255 0
11.6588 -21.1833 -41.8052 0 255 0
11.6588 -21.2018 -41.8052 0 255 0
11.6588 -21.2203 -41.8052 0 255 0
6.93339 1.28759 -24.9007 0 255 0
6.93339 1.2766 -24.9007 0 255 0
7.03269 1.28374 -25.2573 0 255 0
7.03269 1.27259 -25.2573 0 255 0
7.03269 1.26144 -25.2573 0 255 0
7.03269 1.25029 -25.2573 0 255 0
7.03269 1.23914 -25.2573 0 255 0
7.03269 1.22799 -25.2573 0 255 0
7.03269 1.21684 -25.2573 0 255 0
7.03269 1.20569 -25.2573 0 255 0
7.03269 1.19454 -25.2573 0 255 0
7.03269 1.18339 -25.2573 0 255 0
7.03269 1.17224 -25.2573 0 255 0
7.03269 1.16109 -25.2573 0 255 0
7.03269 1.14994 -25.2573 0 255 0
7.03269 1.13879 -25.2573 0 255 0
7.03269 1.12764 -25.2573 0 255 0
7.03269 1.11649 -25.2573 0 255 0
7.03269 1.10534 -25.2573 0 255 0
7.03269 1.09419 -25.2573 0 255 0
7.03269 1.08304 -25.2573 0 255 0
7.03269 1.07189 -25.2573 0 255 0
6.9423 1.04711 -24.9327 0 255 0
6.9423 1.0361 -24.9327 0 255 0
7.03269 1.03845 -25.2573 0 255 0
7.03269 1.0273 -25.2573 0 255 0
7.03269 1.01615 -25.2573 0 255 0
7.03269 1.005 -25.2573 0 255 0
7.03269 0.993846 -25.2573 0 255 0
7.03269 0.982697 -25.2573 0 255 0
7.03269 0.971547 -25.2573 0 255 0
7.03269 0.960398 -25.2573 0 255 0
7.03269 0.949248 -25.2573 0 255 0
7.03269 0.938098 -25.2573 0 255 0
7.03269 0.926949 -25.2573 0 255 0
7.03269 0.915799 -25.2573 0 255 0
7.03269 0.904649 -25.2573 0 255 0
7.03269 0.8935 -25.2573 0 255 0
7.03269 0.88235 -25.2573 0 255 0
7.03269 0.8712 -25.2573 0 255 0
7.03269 0.860051 -25.2573 0 255 0
7.03269 0.848901 -25.2573 0 255 0
7.07878 0.843241 -25.4228 0 255 0
7.07878 0.832018 -25.4228 0 255 0
7.18233 0.832802 -25.7947 0 255 0
7.18233 0.821415 -25.7947 0 255 0
7.18233 0.810028 -25.7947 0 255 0
7.18233 0.798641 -25.7947 0 255 0
7.18233 0.787255 -25.7947 0 255 0
7.18233 0.775868 -25.7947 0 255 0
12.5026 -2.75249 -44.9019 0 255 0
12.5026 -2.77231 -44.9019 0 255 0
12.5026 -2.79213 -44.9019 0 255 0
12.5026 -2.81195 -44.9019 0 255 0
12.5026 -2.83177 -44.9019 0 255 0
12.5026 -2.8516 -44.9019 0 255 0
12.5026 -2.87142 -44.9019 0 255 0
12.5026 -2.89124 -44.9019 0 255 0
12.5026 -2.91106 -44.9019 0 255 0
12.5026 -2.93088 -44.9019 0 255 0
12.5026 -2.9507 -44.9019 0 255 0
12.5026 -2.97052 -44.9019 0 255 0
12.5026 -2.99035 -44.9019 0 255 0
12.5026 -3.01017 -44.9019 0 255 0
12.5026 -3.02999 -44.9019 0 255 0
12.5026 -3.04981 -44.9019 0 255 0
12.5026 -3.06963 -44.9019 0 255 0
12.5026 -3.08945 -44.9019 0 255 0
12.5026 -3.10928 -44.9019 0 255 0
12.5026 -3.1291 -44.9019 0 255 0
12.5026 -3.14892 -44.9019 0 255 0
12.5026 -3.16874 -44.9019 0 255 0
12.5026 -3.18856 -44.9019 0 255 0
12.5026 -3.20838 -44.9019 0 255 0
13.3361 -20.3156 -47.8954 0 255 0
13.3361 -20.3367 -47.8954 0 255 0
13.5028 -20.6123 -48.4941 0 255 0
13.5028 -20.6337 -48.4941 0 255 0
13.3361 -20.4001 -47.8954 0 255 0
13.3361 -20.4213 -47.8954 0 255 0
13.5028 -20.698 -48.4941 0 255 0
13.5028 -20.7194 -48.4941 0 255 0
13.5028 -20.7408 -48.4941 0 255 0
13.5028 -20.7622 -48.4941 0 255 0
13.5028 -20.7836 -48.4941 0 255 0
13.5028 -20.805 -48.4941 0 255 0
13.5028 -20.8264 -48.4941 0 255 0
13.5028 -20.8478 -48.4941 0 255 0
13.5028 -20.8692 -48.4941 0 255 0
13.5028 -20.8906 -48.4941 0 255 0
13.5028 -20.912 -48.4941 0 255 0
13.5028 -20.9334 -48.4941 0 255 0
11.5162 -20.1359 -41.3595 0 255 0
11.5162 -20.1542 -41.3595 0 255 0
11.5162 -20.1724 -41.3595 0 255 0
11.5162 -20.1907 -41.3595 0 255 0
11.5162 -20.2089 -41.3595 0 255 0
11.5162 -20.2272 -41.3595 0 255 0
11.6403 -20.4636 -41.8052 0 255 0
11.6403 -20.4821 -41.8052 0 255 0
11.6403 -20.5005 -41.8052 0 255 0
11.6403 -20.519 -41.8052 0 255 0
11.6403 -20.5374 -41.8052 0 255 0
11.6403 -20.5559 -41.8052 0 255 0
11.6403 -20.5743 -41.8052 0 255 0
11.6403 -20.5928 -41.8052 0 255 0
11.6403 -20.6113 -41.8052 0 255 0
11.6403 -20.6297 -41.8052 0 255 0
11.6403 -20.6482 -41.8052 0 255 0
11.6403 -20.6666 -41.8052 0 255 0
11.3947 -20.2487 -40.9233 0 255 0
11.3947 -20.2667 -40.9233 0 255 0
11.3708 -20.2782 -40.8371 0 255 0
11.3708 -20.2962 -40.8371 0 255 0
11.6153 -20.7511 -41.7153 0 255 0
11.6153 -20.7695 -41.7153 0 255 0
11.5162 -20.6106 -41.3595 0 255 0
11.5162 -20.6289 -41.3595 0 255 0
11.5162 -20.6471 -41.3595 0 255 0
11.5162 -20.6654 -41.3595 0 255 0
11.2758 -20.2518 -40.4961 0 255 0
11.2758 -20.2697 -40.4961 0 255 0
11.6403 -20.9434 -41.8052 0 255 0
11.6403 -20.9619 -41.8052 0 255 0
11.6403 -20.9803 -41.8052 0 255 0
11.6403 -20.9988 -41.8052 0 255 0
11.6403 -21.0173 -41.8052 0 255 0
11.6403 -21.0357 -41.8052 0 255 0
11.6403 -21.0542 -41.8052 0 255 0
11.6403 -21.0726 -41.8052 0 255 0
11.6403 -21.0911 -41.8052 0 255 0
11.6403 -21.1095 -41.8052 0 255 0
11.6403 -21.128 -41.8052 0 255 0
11.6403 -21.1464 -41.8052 0 255 0
11.6403 -21.1649 -41.8052 0 255 0
11.6403 -21.1833 -41.8052 0 255 0
11.6403 -21.2018 -41.8052 0 255 0
11.6403 -21.2203 -41.8052 0 255 0
6.9671 1.29591 -25.0615 0 255 0
6.9671 1.28485 -25.0615 0 255 0
7.0124 1.28207 -25.2245 0 255 0
7.0124 1.27093 -25.2245 0 255 0
7.02153 1.26144 -25.2573 0 255 0
7.02153 1.25029 -25.2573 0 255 0
7.02153 1.23914 -25.2573 0 255 0
7.02153 1.22799 -25.2573 0 255 0
7.02153 1.21684 -25.2573 0 255 0
7.02153 1.20569 -25.2573 0 255 0
7.02153 1.19454 -25.2573 0 255 0
7.02153 1.18339 -25.2573 0 255 0
7.02153 1.17224 -25.2573 0 255 0
7.02153 1.16109 -25.2573 0 255 0
7.02153 1.14994 -25.2573 0 255 0
7.02153 1.13879 -25.2573 0 255 0
7.02153 1.12764 -25.2573 0 255 0
7.02153 1.11649 -25.2573 0 255 0
7.02153 1.10534 -25.2573 0 255 0
7.02153 1.09419 -25.2573 0 255 0
7.02153 1.08304 -25.2573 0 255 0
7.02153 1.07189 -25.2573 0 255 0
6.97611 1.05388 -25.094 0 255 0
6.97611 1.04281 -25.094 0 255 0
7.02153 1.03845 -25.2573 0 255 0
7.02153 1.0273 -25.2573 0 255 0
7.02153 1.01615 -25.2573 0 255 0
7.02153 1.005 -25.2573 0 255 0
7.02153 0.993846 -25.2573 0 255 0
7.02153 0.982697 -25.2573 0 255 0
7.02153 0.971547 -25.2573 0 255 0
7.02153 0.960398 -25.2573 0 255 0
7.02153 0.949248 -25.2573 0 255 0
7.02153 0.938098 -25.2573 0 255 0
7.02153 0.926949 -25.2573 0 255 0
7.02153 0.915799 -25.2573 0 255 0
7.02153 0.904649 -25.2573 0 255 0
7.02153 0.8935 -25.2573 0 255 0
7.02153 0.88235 -25.2573 0 255 0
7.02153 0.8712 -25.2573 0 255 0
7.02153 0.860051 -25.2573 0 255 0
7.02153 0.848901 -25.2573 0 255 0
7.12356 0.849925 -25.6243 0 255 0
7.12356 0.838613 -25.6243 0 255 0
7.17092 0.832802 -25.7947 0 255 0
7.17092 0.821415 -25.7947 0 255 0
7.17092 0.810028 -25.7947 0 255 0
7.17092 0.798641 -25.7947 0 255 0
7.17092 0.787255 -25.7947 0 255 0
7.17092 0.775868 -25.7947 0 255 0
12.4827 -2.75249 -44.9019 0 255 0
12.4827 -2.77231 -44.9019 0 255 0
12.4827 -2.79213 -44.9019 0 255 0
12.4827 -2.81195 -44.9019 0 255 0
12.4827 -2.83177 -44.9019 0 255 0
12.4827 -2.8516 -44.9019 0 255 0
12.4827 -2.87142 -44.9019 0 255 0
12.4827 -2.89124 -44.9019 0 255 0
12.4827 -2.91106 -44.9019 0 255 0
12.4827 -2.93088 -44.9019 0 255 0
12.4539 -2.94389 -44.7982 0 255 0
12.4539 -2.96366 -44.7982 0 255 0
12.4827 -2.99035 -44.9019 0 255 0
12.4827 -3.01017 -44.9019 0 255 0
12.4827 -3.02999 -44.9019 0 255 0
12.4827 -3.04981 -44.9019 0 255 0
12.4827 -3.06963 -44.9019 0 255 0
12.4827 -3.08945 -44.9019 0 255 0
12.4827 -3.10928 -44.9019 0 255 0
12.4827 -3.1291 -44.9019 0 255 0
12.4827 -3.14892 -44.9019 0 255 0
12.4827 -3.16874 -44.9019 0 255 0
12.4827 -3.18856 -44.9019 0 255 0
12.4827 -3.20838 -44.9019 0 255 0
13.4477 -20.5609 -48.3731 0 255 0
13.4477 -20.5823 -48.3731 0 255 0
13.4813 -20.698 -48.4941 0 255 0
13.4813 -20.7194 -48.4941 0 255 0
13.4813 -20.7408 -48.4941 0 255 0
13.4813 -20.7622 -48.4941 0 255 0
13.4813 -20.7836 -48.4941 0 255 0
13.4813 -20.805 -48.4941 0 255 0
13.4813 -20.8264 -48.4941 0 255 0
13.4813 -20.8478 -48.4941 0 255 0
13.4813 -20.8692 -48.4941 0 255 0
13.4813 -20.8906 -48.4941 0 255 0
13.4813 -20.912 -48.4941 0 255 0
13.4813 -20.9334 -48.4941 0 255 0
11.3527 -19.8816 -40.8371 0 255 0
11.3527 -19.8996 -40.8371 0 255 0
11.3527 -19.9176 -40.8371 0 255 0
11.3527 -19.9356 -40.8371 0 255 0
11.3527 -19.9537 -40.8371 0 255 0
11.3527 -19.9717 -40.8371 0 255 0
11.6218 -20.4636 -41.8052 0 255 0
11.6218 -20.4821 -41.8052 0 255 0
11.6218 -20.5005 -41.8052 0 255 0
11.6218 -20.519 -41.8052 0 255 0
11.6218 -20.5374 -41.8052 0 255 0
11.6218 -20.5559 -41.8052 0 255 0
11.6218 -20.5743 -41.8052 0 255 0
11.6218 -20.5928 -41.8052 0 255 0
11.6218 -20.6113 -41.8052 0 255 0
11.6218 -20.6297 -41.8052 0 255 0
11.6218 -20.6482 -41.8052 0 255 0
11.6218 -20.6666 -41.8052 0 255 0
11.4735 -20.421 -41.2715 0 255 0
11.4735 -20.4392 -41.2715 0 255 0
11.4979 -20.5376 -41.3595 0 255 0
11.4979 -20.5558 -41.3595 0 255 0
11.6218 -20.7958 -41.8052 0 255 0
11.6218 -20.8143 -41.8052 0 255 0
11.3527 -20.3503 -40.8371 0 255 0
11.3527 -20.3683 -40.8371 0 255 0
11.3527 -20.3863 -40.8371 0 255 0
11.3527 -20.4043 -40.8371 0 255 0
11.6218 -20.9434 -41.8052 0 255 0
11.6218 -20.9619 -41.8052 0 255 0
11.5968 -20.9352 -41.7153 0 255 0
11.5968 -20.9536 -41.7153 0 255 0
11.6218 -21.0173 -41.8052 0 255 0
11.6218 -21.0357 -41.8052 0 255 0
11.6218 -21.0542 -41.8052 0 255 0
11.6218 -21.0726 -41.8052 0 255 0
11.6218 -21.0911 -41.8052 0 255 0
11.6218 -21.1095 -41.8052 0 255 0
11.6218 -21.128 -41.8052 0 255 0
11.6218 -21.1464 -41.8052 0 255 0
11.6218 -21.1649 -41.8052 0 255 0
11.6218 -21.1833 -41.8052 0 255 0
11.6218 -21.2018 -41.8052 0 255 0
11.6218 -21.2203 -41.8052 0 255 0
6.95602 1.29591 -25.0615 0 255 0
6.95602 1.28485 -25.0615 0 255 0
6.96502 1.27543 -25.094 0 255 0
6.96502 1.26436 -25.094 0 255 0
7.01037 1.26144 -25.2573 0 255 0
7.01037 1.25029 -25.2573 0 255 0
7.01037 1.23914 -25.2573 0 255 0
7.01037 1.22799 -25.2573 0 255 0
7.01037 1.21684 -25.2573 0 255 0
7.01037 1.20569 -25.2573 0 255 0
7.01037 1.19454 -25.2573 0 255 0
7.01037 1.18339 -25.2573 0 255 0
7.01037 1.17224 -25.2573 0 255 0
7.01037 1.16109 -25.2573 0 255 0
7.01037 1.14994 -25.2573 0 255 0
7.01037 1.13879 -25.2573 0 255 0
7.01037 1.12764 -25.2573 0 255 0
7.01037 1.11649 -25.2573 0 255 0
7.01037 1.10534 -25.2573 0 255 0
7.01037 1.09419 -25.2573 0 255 0
7.01037 1.08304 -25.2573 0 255 0
7.01037 1.07189 -25.2573 0 255 0
7.00125 1.05937 -25.2245 0 255 0
7.00125 1.04823 -25.2245 0 255 0
7.01037 1.03845 -25.2573 0 255 0
7.01037 1.0273 -25.2573 0 255 0
7.01037 1.01615 -25.2573 0 255 0
7.01037 1.005 -25.2573 0 255 0
7.01037 0.993846 -25.2573 0 255 0
7.01037 0.982697 -25.2573 0 255 0
7.01037 0.971547 -25.2573 0 255 0
7.01037 0.960398 -25.2573 0 255 0
7.01037 0.949248 -25.2573 0 255 0
7.01037 0.938098 -25.2573 0 255 0
7.01037 0.926949 -25.2573 0 255 0
7.01037 0.915799 -25.2573 0 255 0
7.01037 0.904649 -25.2573 0 255 0
7.01037 0.8935 -25.2573 0 255 0
7.01037 0.88235 -25.2573 0 255 0
7.01037 0.8712 -25.2573 0 255 0
7.01037 0.860051 -25.2573 0 255 0
7.01037 0.848901 -25.2573 0 255 0
7.15002 0.85444 -25.7605 0 255 0
7.15002 0.843068 -25.7605 0 255 0
7.15952 0.832802 -25.7947 0 255 0
7.15952 0.821415 -25.7947 0 255 0
7.15952 0.810028 -25.7947 0 255 0
7.15952 0.798641 -25.7947 0 255 0
7.15952 0.787255 -25.7947 0 255 0
7.15952 0.775868 -25.7947 0 255 0
12.4629 -2.75249 -44.9019 0 255 0
12.4629 -2.77231 -44.9019 0 255 0
12.4629 -2.79213 -44.9019 0 255 0
12.4629 -2.81195 -44.9019 0 255 0
12.4629 -2.83177 -44.9019 0 255 0
12.4629 -2.8516 -44.9019 0 255 0
12.4629 -2.87142 -44.9019 0 255 0
12.4629 -2.89124 -44.9019 0 255 0
12.4629 -2.91106 -44.9019 0 255 0
12.4629 -2.93088 -44.9019 0 255 0
12.3203 -2.91694 -44.3882 0 255 0
12.3203 -2.93654 -44.3882 0 255 0
12.4629 -2.99035 -44.9019 0 255 0
12.4629 -3.01017 -44.9019 0 255 0
12.4629 -3.02999 -44.9019 0 255 0
12.4629 -3.04981 -44.9019 0 255 0
12.4629 -3.06963 -44.9019 0 255 0
12.4629 -3.08945 -44.9019 0 255 0
12.4629 -3.10928 -44.9019 0 255 0
12.4629 -3.1291 -44.9019 0 255 0
12.4629 -3.14892 -44.9019 0 255 0
12.4629 -3.16874 -44.9019 0 255 0
12.4629 -3.18856 -44.9019 0 255 0
12.4629 -3.20838 -44.9019 0 255 0
13.2937 -20.3579 -47.8954 0 255 0
13.2937 -20.379 -47.8954 0 255 0
13.4599 -20.698 -48.4941 0 255 0
13.4599 -20.7194 -48.4941 0 255 0
13.4599 -20.7408 -48.4941 0 255 0
13.4599 -20.7622 -48.4941 0 255 0
13.4599 -20.7836 -48.4941 0 255 0
13.4599 -20.805 -48.4941 0 255 0
13.4599 -20.8264 -48.4941 0 255 0
13.4599 -20.8478 -48.4941 0 255 0
13.4599 -20.8692 -48.4941 0 255 0
13.4599 -20.8906 -48.4941 0 255 0
13.4599 -20.912 -48.4941 0 255 0
13.4599 -20.9334 -48.4941 0 255 0
11.6034 -20.4636 -41.8052 0 255 0
11.6034 -20.4821 -41.8052 0 255 0
11.6034 -20.5005 -41.8052 0 255 0
11.6034 -20.519 -41.8052 0 255 0
11.6034 -20.5374 -41.8052 0 255 0
11.6034 -20.5559 -41.8052 0 255 0
11.6034 -20.5743 -41.8052 0 255 0
11.6034 -20.5928 -41.8052 0 255 0
11.6034 -20.6113 -41.8052 0 255 0
11.6034 -20.6297 -41.8052 0 255 0
11.6034 -20.6482 -41.8052 0 255 0
11.6034 -20.6666 -41.8052 0 255 0
11.4552 -20.421 -41.2715 0 255 0
11.4552 -20.4392 -41.2715 0 255 0
11.5784 -20.7142 -41.7153 0 255 0
11.5784 -20.7327 -41.7153 0 255 0
11.6034 -20.7958 -41.8052 0 255 0
11.6034 -20.8143 -41.8052 0 255 0
11.24 -20.1803 -40.4961 0 255 0
11.24 -20.1982 -40.4961 0 255 0
11.24 -20.2161 -40.4961 0 255 0
11.24 -20.234 -40.4961 0 255 0
11.6034 -20.9434 -41.8052 0 255 0
11.6034 -20.9619 -41.8052 0 255 0
11.4797 -20.7567 -41.3595 0 255 0
11.4797 -20.7749 -41.3595 0 255 0
11.6034 -21.0173 -41.8052 0 255 0
11.6034 -21.0357 -41.8052 0 255 0
11.6034 -21.0542 -41.8052 0 255 0
11.6034 -21.0726 -41.8052 0 255 0
11.6034 -21.0911 -41.8052 0 255 0
11.6034 -21.1095 -41.8052 0 255 0
11.6034 -21.128 -41.8052 0 255 0
11.6034 -21.1464 -41.8052 0 255 0
11.6034 -21.1649 -41.8052 0 255 0
11.6034 -21.1833 -41.8052 0 255 0
11.6034 -21.2018 -41.8052 0 255 0
11.6034 -21.2203 -41.8052 0 255 0
6.90037 1.28759 -24.9007 0 255 0
6.90037 1.2766 -24.9007 0 255 0
6.90037 1.26561 -24.9007 0 255 0
6.90037 1.25462 -24.9007 0 255 0
6.9901 1.2598 -25.2245 0 255 0
6.9901 1.24866 -25.2245 0 255 0
6.9992 1.23914 -25.2573 0 255 0
6.9992 1.22799 -25.2573 0 255 0
6.9992 1.21684 -25.2573 0 255 0
6.9992 1.20569 -25.2573 0 255 0
6.9992 1.19454 -25.2573 0 255 0
6.9992 1.18339 -25.2573 0 255 0
6.9992 1.17224 -25.2573 0 255 0
6.9992 1.16109 -25.2573 0 255 0
6.9992 1.14994 -25.2573 0 255 0
6.9992 1.13879 -25.2573 0 255 0
6.9992 1.12764 -25.2573 0 255 0
6.9992 1.11649 -25.2573 0 255 0
6.9992 1.10534 -25.2573 0 255 0
6.9992 1.09419 -25.2573 0 255 0
6.9992 1.08304 -25.2573 0 255 0
6.9992 1.07189 -25.2573 0 255 0
6.9992 1.06074 -25.2573 0 255 0
6.9992 1.04959 -25.2573 0 255 0
6.9992 1.03845 -25.2573 0 255 0
6.9992 1.0273 -25.2573 0 255 0
6.9992 1.01615 -25.2573 0 255 0
6.9992 1.005 -25.2573 0 255 0
6.9992 0.993846 -25.2573 0 255 0
6.9992 0.982697 -25.2573 0 255 0
6.9992 0.971547 -25.2573 0 255 0
6.9992 0.960398 -25.2573 0 255 0
6.9992 0.949248 -25.2573 0 255 0
6.9992 0.938098 -25.2573 0 255 0
6.9992 0.926949 -25.2573 0 255 0
6.9992 0.915799 -25.2573 0 255 0
6.9992 0.904649 -25.2573 0 255 0
6.9992 0.8935 -25.2573 0 255 0
6.9992 0.88235 -25.2573 0 255 0
6.9992 0.8712 -25.2573 0 255 0
6.9992 0.860051 -25.2573 0 255 0
6.9992 0.848901 -25.2573 0 255 0
7.13863 0.85444 -25.7605 0 255 0
7.13863 0.843068 -25.7605 0 255 0
7.14812 0.832802 -25.7947 0 255 0
7.14812 0.821415 -25.7947 0 255 0
7.14812 0.810028 -25.7947 0 255 0
7.14812 0.798641 -25.7947 0 255 0
7.14812 0.787255 -25.7947 0 255 0
7.14812 0.775868 -25.7947 0 255 0
12.443 -2.75249 -44.9019 0 255 0
12.443 -2.77231 -44.9019 0 255 0
12.443 -2.79213 -44.9019 0 255 0
12.443 -2.81195 -44.9019 0 255 0
12.443 -2.83177 -44.9019 0 255 0
12.443 -2.8516 -44.9019 0 255 0
12.443 -2.87142 -44.9019 0 255 0
12.443 -2.89124 -44.9019 0 255 0
12.443 -2.91106 -44.9019 0 255 0
12.443 -2.93088 -44.9019 0 255 0
12.1341 -2.87744 -43.787 0 255 0
12.1341 -2.89676 -43.787 0 255 0
12.443 -2.99035 -44.9019 0 255 0
12.443 -3.01017 -44.9019 0 255 0
12.443 -3.02999 -44.9019 0 255 0
12.443 -3.04981 -44.9019 0 255 0
12.443 -3.06963 -44.9019 0 255 0
12.443 -3.08945 -44.9019 0 255 0
12.443 -3.10928 -44.9019 0 255 0
12.443 -3.1291 -44.9019 0 255 0
12.443 -3.14892 -44.9019 0 255 0
12.443 -3.16874 -44.9019 0 255 0
12.443 -3.18856 -44.9019 0 255 0
12.443 -3.20838 -44.9019 0 255 0
13.405 -20.6463 -48.3731 0 255 0
13.405 -20.6677 -48.3731 0 255 0
13.4385 -20.7408 -48.4941 0 255 0
13.4385 -20.7622 -48.4941 0 255 0
13.4385 -20.7836 -48.4941 0 255 0
13.4385 -20.805 -48.4941 0 255 0
13.4385 -20.8264 -48.4941 0 255 0
13.4385 -20.8478 -48.4941 0 255 0
13.4385 -20.8692 -48.4941 0 255 0
13.4385 -20.8906 -48.4941 0 255 0
13.405 -20.8599 -48.3731 0 255 0
13.405 -20.8812 -48.3731 0 255 0
11.56 -20.4196 -41.7153 0 255 0
11.56 -20.438 -41.7153 0 255 0
11.56 -20.4564 -41.7153 0 255 0
11.56 -20.4749 -41.7153 0 255 0
11.5849 -20.5374 -41.8052 0 255 0
11.5849 -20.5559 -41.8052 0 255 0
11.56 -20.5301 -41.7153 0 255 0
11.56 -20.5485 -41.7153 0 255 0
11.5849 -20.6113 -41.8052 0 255 0
11.5849 -20.6297 -41.8052 0 255 0
11.56 -20.6038 -41.7153 0 255 0
11.56 -20.6222 -41.7153 0 255 0
11.3166 -20.2061 -40.8371 0 255 0
11.3166 -20.2241 -40.8371 0 255 0
11.56 -20.7142 -41.7153 0 255 0
11.56 -20.7327 -41.7153 0 255 0
11.56 -20.7511 -41.7153 0 255 0
11.56 -20.7695 -41.7153 0 255 0
11.5849 -20.9434 -41.8052 0 255 0
11.5849 -20.9619 -41.8052 0 255 0
11.3166 -20.4945 -40.8371 0 255 0
11.3166 -20.5125 -40.8371 0 255 0
11.5849 -21.0173 -41.8052 0 255 0
11.5849 -21.0357 -41.8052 0 255 0
11.5849 -21.0542 -41.8052 0 255 0
11.5849 -21.0726 -41.8052 0 255 0
11.5849 -21.0911 -41.8052 0 255 0
11.5849 -21.1095 -41.8052 0 255 0
11.5849 -21.128 -41.8052 0 255 0
11.5849 -21.1464 -41.8052 0 255 0
11.5849 -21.1649 -41.8052 0 255 0
11.5849 -21.1833 -41.8052 0 255 0
11.5849 -21.2018 -41.8052 0 255 0
11.5849 -21.2203 -41.8052 0 255 0
6.85417 1.28102 -24.7735 0 255 0
6.85417 1.27008 -24.7735 0 255 0
6.85417 1.25914 -24.7735 0 255 0
6.85417 1.24821 -24.7735 0 255 0
6.94284 1.25328 -25.094 0 255 0
6.94284 1.2422 -25.094 0 255 0
6.98804 1.23914 -25.2573 0 255 0
6.98804 1.22799 -25.2573 0 255 0
6.98804 1.21684 -25.2573 0 255 0
6.98804 1.20569 -25.2573 0 255 0
6.98804 1.19454 -25.2573 0 255 0
6.98804 1.18339 -25.2573 0 255 0
6.98804 1.17224 -25.2573 0 255 0
6.98804 1.16109 -25.2573 0 255 0
6.98804 1.14994 -25.2573 0 255 0
6.98804 1.13879 -25.2573 0 255 0
6.98804 1.12764 -25.2573 0 255 0
6.98804 1.11649 -25.2573 0 255 0
6.98804 1.10534 -25.2573 0 255 0
6.98804 1.09419 -25.2573 0 255 0
6.98804 1.08304 -25.2573 0 255 0
6.98804 1.07189 -25.2573 0 255 0
6.98804 1.06074 -25.2573 0 255 0
6.98804 1.04959 -25.2573 0 255 0
6.98804 1.03845 -25.2573 0 255 0
6.98804 1.0273 -25.2573 0 255 0
6.98804 1.01615 -25.2573 0 255 0
6.98804 1.005 -25.2573 0 255 0
6.98804 0.993846 -25.2573 0 255 0
6.98804 0.982697 -25.2573 0 255 0
6.98804 0.971547 -25.2573 0 255 0
6.98804 0.960398 -25.2573 0 255 0
6.98804 0.949248 -25.2573 0 255 0
6.98804 0.938098 -25.2573 0 255 0
6.98804 0.926949 -25.2573 0 255 0
6.98804 0.915799 -25.2573 0 255 0
6.98804 0.904649 -25.2573 0 255 0
6.98804 0.8935 -25.2573 0 255 0
6.98804 0.88235 -25.2573 0 255 0
6.98804 0.8712 -25.2573 0 255 0
6.98804 0.860051 -25.2573 0 255 0
6.98804 0.848901 -25.2573 0 255 0
7.08958 0.849925 -25.6243 0 255 0
7.08958 0.838613 -25.6243 0 255 0
7.13672 0.832802 -25.7947 0 255 0
7.13672 0.821415 -25.7947 0 255 0
7.13672 0.810028 -25.7947 0 255 0
7.13672 0.798641 -25.7947 0 255 0
7.13672 0.787255 -25.7947 0 255 0
7.13672 0.775868 -25.7947 0 255 0
12.4232 -2.75249 -44.9019 0 255 0
12.4232 -2.77231 -44.9019 0 255 0
12.4232 -2.79213 -44.9019 0 255 0
12.4232 -2.81195 -44.9019 0 255 0
12.4232 -2.83177 -44.9019 0 255 0
12.4232 -2.8516 -44.9019 0 255 0
12.4232 -2.87142 -44.9019 0 255 0
12.4232 -2.89124 -44.9019 0 255 0
12.4232 -2.91106 -44.9019 0 255 0
12.4232 -2.93088 -44.9019 0 255 0
12.4232 -2.99035 -44.9019 0 255 0
12.4232 -3.01017 -44.9019 0 255 0
12.4232 -3.02999 -44.9019 0 255 0
12.4232 -3.04981 -44.9019 0 255 0
12.4232 -3.06963 -44.9019 0 255 0
12.4232 -3.08945 -44.9019 0 255 0
12.4232 -3.10928 -44.9019 0 255 0
12.4232 -3.1291 -44.9019 0 255 0
12.4232 -3.14892 -44.9019 0 255 0
12.4232 -3.16874 -44.9019 0 255 0
12.4232 -3.18856 -44.9019 0 255 0
12.4232 -3.20838 -44.9019 0 255 0
13.2514 -20.4424 -47.8954 0 255 0
13.2514 -20.4636 -47.8954 0 255 0
13.417 -20.7408 -48.4941 0 255 0
13.417 -20.7622 -48.4941 0 255 0
13.417 -20.7836 -48.4941 0 255 0
13.417 -20.805 -48.4941 0 255 0
13.417 -20.8264 -48.4941 0 255 0
13.417 -20.8478 -48.4941 0 255 0
13.417 -20.8692 -48.4941 0 255 0
13.417 -20.8906 -48.4941 0 255 0
13.2514 -20.6539 -47.8954 0 255 0
13.2514 -20.675 -47.8954 0 255 0
11.4431 -20.2455 -41.3595 0 255 0
11.4431 -20.2637 -41.3595 0 255 0
11.4431 -20.282 -41.3595 0 255 0
11.4431 -20.3002 -41.3595 0 255 0
11.5664 -20.5374 -41.8052 0 255 0
11.5664 -20.5559 -41.8052 0 255 0
11.4431 -20.355 -41.3595 0 255 0
11.4431 -20.3733 -41.3595 0 255 0
11.5664 -20.6113 -41.8052 0 255 0
11.5664 -20.6297 -41.8052 0 255 0
11.4431 -20.428 -41.3595 0 255 0
11.4431 -20.4463 -41.3595 0 255 0
11.4431 -20.5376 -41.3595 0 255 0
11.4431 -20.5558 -41.3595 0 255 0
11.4431 -20.5741 -41.3595 0 255 0
11.4431 -20.5924 -41.3595 0 255 0
11.5664 -20.9434 -41.8052 0 255 0
11.5664 -20.9619 -41.8052 0 255 0
11.2042 -20.3233 -40.4961 0 255 0
11.2042 -20.3412 -40.4961 0 255 0
11.5664 -21.0173 -41.8052 0 255 0
11.5664 -21.0357 -41.8052 0 255 0
11.5664 -21.0542 -41.8052 0 255 0
11.5664 -21.0726 -41.8052 0 255 0
11.5664 -21.0911 -41.8052 0 255 0
11.5664 -21.1095 -41.8052 0 255 0
11.5664 -21.128 -41.8052 0 255 0
11.5664 -21.1464 -41.8052 0 255 0
11.5664 -21.1649 -41.8052 0 255 0
11.5664 -21.1833 -41.8052 0 255 0
11.5664 -21.2018 -41.8052 0 255 0
11.5664 -21.2203 -41.8052 0 255 0
6.83449 1.25754 -24.7419 0 255 0
6.83449 1.24662 -24.7419 0 255 0
6.87836 1.24363 -24.9007 0 255 0
6.87836 1.23263 -24.9007 0 255 0
6.97688 1.23914 -25.2573 0 255 0
6.97688 1.22799 -25.2573 0 255 0
6.97688 1.21684 -25.2573 0 255 0
6.97688 1.20569 -25.2573 0 255 0
6.97688 1.19454 -25.2573 0 255 0
6.97688 1.18339 -25.2573 0 255 0
6.97688 1.17224 -25.2573 0 255 0
6.97688 1.16109 -25.2573 0 255 0
6.97688 1.14994 -25.2573 0 255 0
6.97688 1.13879 -25.2573 0 255 0
6.97688 1.12764 -25.2573 0 255 0
6.97688 1.11649 -25.2573 0 255 0
6.97688 1.10534 -25.2573 0 255 0
6.97688 1.09419 -25.2573 0 255 0
6.97688 1.08304 -25.2573 0 255 0
6.97688 1.07189 -25.2573 0 255 0
6.97688 1.06074 -25.2573 0 255 0
6.97688 1.04959 -25.2573 0 255 0
6.97688 1.03845 -25.2573 0 255 0
6.97688 1.0273 -25.2573 0 255 0
6.97688 1.01615 -25.2573 0 255 0
6.97688 1.005 -25.2573 0 255 0
6.97688 0.993846 -25.2573 0 255 0
6.97688 0.982697 -25.2573 0 255 0
6.97688 0.971547 -25.2573 0 255 0
6.97688 0.960398 -25.2573 0 255 0
6.97688 0.949248 -25.2573 0 255 0
6.97688 0.938098 -25.2573 0 255 0
6.97688 0.926949 -25.2573 0 255 0
6.97688 0.915799 -25.2573 0 255 0
6.97688 0.904649 -25.2573 0 255 0
6.97688 0.8935 -25.2573 0 255 0
6.97688 0.88235 -25.2573 0 255 0
6.97688 0.8712 -25.2573 0 255 0
6.97688 0.860051 -25.2573 0 255 0
6.97688 0.848901 -25.2573 0 255 0
7.0226 0.843241 -25.4228 0 255 0
7.0226 0.832018 -25.4228 0 255 0
7.11586 0.831696 -25.7605 0 255 0
7.11586 0.820324 -25.7605 0 255 0
7.12532 0.810028 -25.7947 0 255 0
7.12532 0.798641 -25.7947 0 255 0
7.12532 0.787255 -25.7947 0 255 0
7.12532 0.775868 -25.7947 0 255 0
7.27034 0.78004 -26.3197 0 255 0
7.27034 0.768422 -26.3197 0 255 0
12.4033 -2.75249 -44.9019 0 255 0
12.4033 -2.77231 -44.9019 0 255 0
12.4033 -2.79213 -44.9019 0 255 0
12.4033 -2.81195 -44.9019 0 255 0
12.4033 -2.83177 -44.9019 0 255 0
12.4033 -2.8516 -44.9019 0 255 0
12.4033 -2.87142 -44.9019 0 255 0
12.4033 -2.89124 -44.9019 0 255 0
12.3747 -2.90434 -44.7982 0 255 0
12.3747 -2.92411 -44.7982 0 255 0
12.4033 -2.99035 -44.9019 0 255 0
12.4033 -3.01017 -44.9019 0 255 0
12.4033 -3.02999 -44.9019 0 255 0
12.4033 -3.04981 -44.9019 0 255 0
12.4033 -3.06963 -44.9019 0 255 0
12.4033 -3.08945 -44.9019 0 255 0
12.4033 -3.10928 -44.9019 0 255 0
12.4033 -3.1291 -44.9019 0 255 0
12.4033 -3.14892 -44.9019 0 255 0
12.4033 -3.16874 -44.9019 0 255 0
12.4033 -3.18856 -44.9019 0 255 0
12.4033 -3.20838 -44.9019 0 255 0
13.3956 -20.7408 -48.4941 0 255 0
13.3956 -20.7622 -48.4941 0 255 0
13.3956 -20.7836 -48.4941 0 255 0
13.3956 -20.805 -48.4941 0 255 0
13.3956 -20.8264 -48.4941 0 255 0
13.3956 -20.8478 -48.4941 0 255 0
13.3956 -20.8692 -48.4941 0 255 0
13.3956 -20.8906 -48.4941 0 255 0
11.2805 -19.9897 -40.8371 0 255 0
11.2805 -20.0078 -40.8371 0 255 0
11.2805 -20.0258 -40.8371 0 255 0
11.2805 -20.0438 -40.8371 0 255 0
11.5231 -20.4933 -41.7153 0 255 0
11.5231 -20.5117 -41.7153 0 255 0
11.2805 -20.0979 -40.8371 0 255 0
11.2805 -20.1159 -40.8371 0 255 0
11.5231 -20.5669 -41.7153 0 255 0
11.5231 -20.5853 -41.7153 0 255 0
11.2805 -20.17 -40.8371 0 255 0
11.2805 -20.188 -40.8371 0 255 0
11.2805 -20.2782 -40.8371 0 255 0
11.2805 -20.2962 -40.8371 0 255 0
11.2805 -20.3142 -40.8371 0 255 0
11.2805 -20.3322 -40.8371 0 255 0
11.1863 -20.1803 -40.4961 0 255 0
11.1863 -20.1982 -40.4961 0 255 0
11.5479 -20.9434 -41.8052 0 255 0
11.5479 -20.9619 -41.8052 0 255 0
11.1863 -20.3233 -40.4961 0 255 0
11.1863 -20.3412 -40.4961 0 255 0
11.5479 -21.0173 -41.8052 0 255 0
11.5479 -21.0357 -41.8052 0 255 0
11.5479 -21.0542 -41.8052 0 255 0
11.5479 -21.0726 -41.8052 0 255 0
11.5479 -21.0911 -41.8052 0 255 0
11.5479 -21.1095 -41.8052 0 255 0
11.5479 -21.128 -41.8052 0 255 0
11.5479 -21.1464 -41.8052 0 255 0
11.5479 -21.1649 -41.8052 0 255 0
11.5479 -21.1833 -41.8052 0 255 0
11.5479 -21.2018 -41.8052 0 255 0
11.5479 -21.2203 -41.8052 0 255 0
6.82356 1.25754 -24.7419 0 255 0
6.82356 1.24662 -24.7419 0 255 0
6.83227 1.23727 -24.7735 0 255 0
6.83227 1.22634 -24.7735 0 255 0
6.96571 1.23914 -25.2573 0 255 0
6.96571 1.22799 -25.2573 0 255 0
6.96571 1.21684 -25.2573 0 255 0
6.96571 1.20569 -25.2573 0 255 0
6.96571 1.19454 -25.2573 0 255 0
6.96571 1.18339 -25.2573 0 255 0
6.96571 1.17224 -25.2573 0 255 0
6.96571 1.16109 -25.2573 0 255 0
6.96571 1.14994 -25.2573 0 255 0
6.96571 1.13879 -25.2573 0 255 0
6.96571 1.12764 -25.2573 0 255 0
6.96571 1.11649 -25.2573 0 255 0
6.96571 1.10534 -25.2573 0 255 0
6.96571 1.09419 -25.2573 0 255 0
6.96571 1.08304 -25.2573 0 255 0
6.96571 1.07189 -25.2573 0 255 0
6.96571 1.06074 -25.2573 0 255 0
6.96571 1.04959 -25.2573 0 255 0
6.96571 1.03845 -25.2573 0 255 0
6.96571 1.0273 -25.2573 0 255 0
6.96571 1.01615 -25.2573 0 255 0
6.96571 1.005 -25.2573 0 255 0
6.96571 0.993846 -25.2573 0 255 0
6.96571 0.982697 -25.2573 0 255 0
6.96571 0.971547 -25.2573 0 255 0
6.96571 0.960398 -25.2573 0 255 0
6.96571 0.949248 -25.2573 0 255 0
6.96571 0.938098 -25.2573 0 255 0
6.96571 0.926949 -25.2573 0 255 0
6.96571 0.915799 -25.2573 0 255 0
6.96571 0.904649 -25.2573 0 255 0
6.96571 0.8935 -25.2573 0 255 0
6.96571 0.88235 -25.2573 0 255 0
6.96571 0.8712 -25.2573 0 255 0
6.96571 0.860051 -25.2573 0 255 0
6.96571 0.848901 -25.2573 0 255 0
6.9748 0.838844 -25.2903 0 255 0
6.9748 0.827679 -25.2903 0 255 0
7.06693 0.827301 -25.6243 0 255 0
7.06693 0.81599 -25.6243 0 255 0
7.11392 0.810028 -25.7947 0 255 0
7.11392 0.798641 -25.7947 0 255 0
7.11392 0.787255 -25.7947 0 255 0
7.11392 0.775868 -25.7947 0 255 0
7.21952 0.775829 -26.1776 0 255 0
7.21952 0.764273 -26.1776 0 255 0
12.3835 -2.75249 -44.9019 0 255 0
12.3835 -2.77231 -44.9019 0 255 0
12.3835 -2.79213 -44.9019 0 255 0
12.3835 -2.81195 -44.9019 0 255 0
12.3835 -2.83177 -44.9019 0 255 0
12.3835 -2.8516 -44.9019 0 255 0
12.3835 -2.87142 -44.9019 0 255 0
12.3835 -2.89124 -44.9019 0 255 0
12.2418 -2.87775 -44.3882 0 255 0
12.2418 -2.89735 -44.3882 0 255 0
12.3835 -2.99035 -44.9019 0 255 0
12.3835 -3.01017 -44.9019 0 255 0
12.3835 -3.02999 -44.9019 0 255 0
12.3835 -3.04981 -44.9019 0 255 0
12.3835 -3.06963 -44.9019 0 255 0
12.3835 -3.08945 -44.9019 0 255 0
12.3835 -3.10928 -44.9019 0 255 0
12.3835 -3.1291 -44.9019 0 255 0
12.3835 -3.14892 -44.9019 0 255 0
12.3835 -3.16874 -44.9019 0 255 0
12.3835 -3.18856 -44.9019 0 255 0
12.3835 -3.20838 -44.9019 0 255 0
12.076 -3.14805 -43.787 0 255 0
12.076 -3.16738 -43.787 0 255 0
12.076 -3.18671 -43.787 0 255 0
12.076 -3.20604 -43.787 0 255 0
12.076 -3.22536 -43.787 0 255 0
12.076 -3.24469 -43.787 0 255 0
13.3742 -20.7408 -48.4941 0 255 0
13.3742 -20.7622 -48.4941 0 255 0
13.3742 -20.7836 -48.4941 0 255 0
13.3742 -20.805 -48.4941 0 255 0
13.3742 -20.8264 -48.4941 0 255 0
13.3742 -20.8478 -48.4941 0 255 0
13.3742 -20.8692 -48.4941 0 255 0
13.3742 -20.8906 -48.4941 0 255 0
11.4065 -20.3185 -41.3595 0 255 0
11.4065 -20.3367 -41.3595 0 255 0
11.4065 -20.3915 -41.3595 0 255 0
11.4065 -20.4098 -41.3595 0 255 0
11.1684 -20.1446 -40.4961 0 255 0
11.1684 -20.1625 -40.4961 0 255 0
11.2625 -20.3503 -40.8371 0 255 0
11.2625 -20.3683 -40.8371 0 255 0
11.5295 -20.9434 -41.8052 0 255 0
11.5295 -20.9619 -41.8052 0 255 0
11.2625 -20.4945 -40.8371 0 255 0
11.2625 -20.5125 -40.8371 0 255 0
11.5295 -21.0173 -41.8052 0 255 0
11.5295 -21.0357 -41.8052 0 255 0
11.5295 -21.0542 -41.8052 0 255 0
11.5295 -21.0726 -41.8052 0 255 0
11.5295 -21.0911 -41.8052 0 255 0
11.5295 -21.1095 -41.8052 0 255 0
11.5295 -21.128 -41.8052 0 255 0
11.5295 -21.1464 -41.8052 0 255 0
11.5295 -21.1649 -41.8052 0 255 0
11.5295 -21.1833 -41.8052 0 255 0
11.5295 -21.2018 -41.8052 0 255 0
11.5295 -21.2203 -41.8052 0 255 0
6.81262 1.25754 -24.7419 0 255 0
6.81262 1.24662 -24.7419 0 255 0
6.81262 1.23569 -24.7419 0 255 0
6.81262 1.22477 -24.7419 0 255 0
6.94551 1.23753 -25.2245 0 255 0
6.94551 1.22639 -25.2245 0 255 0
6.95455 1.21684 -25.2573 0 255 0
6.95455 1.20569 -25.2573 0 255 0
6.95455 1.19454 -25.2573 0 255 0
6.95455 1.18339 -25.2573 0 255 0
6.95455 1.17224 -25.2573 0 255 0
6.95455 1.16109 -25.2573 0 255 0
6.95455 1.14994 -25.2573 0 255 0
6.95455 1.13879 -25.2573 0 255 0
6.95455 1.12764 -25.2573 0 255 0
6.95455 1.11649 -25.2573 0 255 0
6.95455 1.10534 -25.2573 0 255 0
6.95455 1.09419 -25.2573 0 255 0
6.95455 1.08304 -25.2573 0 255 0
6.95455 1.07189 -25.2573 0 255 0
6.95455 1.06074 -25.2573 0 255 0
6.95455 1.04959 -25.2573 0 255 0
